# 3D point list with one line of data per point:
#   POINT3D_ID, X, Y, Z, R, G, B, ERROR, TRACK[] as (IMAGE_ID, POINT2D_IDX)
# Number of points: 367, mean track length: 5.1289655172413795
175 -0.22349028558446618 0.68931648041345428 2.450787118090914 170 177 198 0.16211968723740577 94 654 87 463 40 647
176 0.50366837020177058 0.79988981379357105 1.8396181079687122 46 50 63 0.14719608824809605 94 353 87 465 40 369
177 0.97003337250300192 0.85528439535634104 1.8898522543538492 255 227 60 0.063730749124900857 94 360 87 467 40 379
178 -0.055208836808607518 0.76560959832104958 2.3213761356222156 255 237 64 0.17210658717866489 94 44 87 468 40 43 7 137 26 78
179 1.0145355416743782 0.87333142617230974 1.9163147197073034 143 77 12 0.32667408246210328 94 362 87 470 40 381 24 80 15 114 93 85 44 122 92 179 18 68
180 0.36742861225862072 0.82131732922955725 2.1545749353963766 129 84 12 0.073677105761539283 94 48 87 471 40 376
181 -0.29183225476321284 0.83590239527425148 1.9272048256462113 253 228 61 0.13788594927707337 94 359 87 474 40 372 7 166 26 131 60 163
182 -0.66260443370445221 0.79787052886187204 2.2596547302149337 105 55 6 0.07017007308513383 94 356 87 476 40 371
184 0.98675838123227833 0.94554544354561898 1.8730488312159728 195 114 15 0.053338643263270334 94 370 87 482 40 392
185 -0.68389018085223896 0.85760913131220862 2.196394981336971 77 92 126 0.063528778065206001 94 363 87 486 40 380
186 1.2798292230034753 0.97364851692461718 1.8773113817546303 254 244 109 0.27969209146519314 94 381 87 489 40 681 26 358 7 564
187 0.29666388693880091 0.92028500563190729 2.1110298621782762 126 88 16 0.098159086604921897 94 367 87 490 40 384
188 1.0531933119449897 0.97197964737045106 1.8598414815675202 189 111 17 0.028031569519952795 94 379 87 491 40 399
189 1.0531933119449897 0.97197964737045106 1.8598414815675202 189 111 17 0.028031569519952795 94 380 87 492 40 400
190 1.1380488378579827 0.9882270458428144 1.8299700946082667 254 222 60 0.11750488179481336 94 388 87 493 40 406 24 379 15 405
191 1.1164280830752542 0.99826088706006988 1.8322631186911522 185 112 20 0.083124088279502725 94 394 87 501 40 412
192 -0.20281935864878345 0.91757930931986253 2.3287148448881276 249 203 61 0.079942960392019077 94 677 87 506 40 669
193 1.0843281326935719 1.0509318398571437 1.7965946110024971 189 127 52 0.085848618227919629 94 415 87 519 40 433
194 0.57823542347603618 1.0759738227844389 1.3692474526471705 194 205 232 0.20594654931117998 94 423 87 522 40 441
195 1.0443505190932714 0.9881569090373864 3.0093748842142953 255 220 54 0.24557776012860236 87 523 40 416
196 1.2178590825876303 1.0788108985062113 1.8085421613204327 255 243 111 0.14540211079414206 94 693 87 525 40 692 24 603
197 -0.1998812161192097 1.0765866161441018 2.183560132854677 254 224 59 0.12401378963498869 94 426 87 550 40 437 26 158 7 214 18 427 93 313
198 -0.054600885293479472 1.0815649063599364 2.2011621592438129 227 186 52 0.32343515008632706 94 427 87 551 40 440 7 695 55 800 26 511 60 512 46 784 64 571 41 174 17 196 95 192 97 168 51 79 90 73 30 86 36 101
199 0.85621726103731188 1.1559774666218818 1.7195936661846123 217 126 19 0.072909227598975168 94 453 87 556 40 466
200 -0.47757255814199151 1.1099766166579501 2.1928617489045048 253 211 59 0.26811839135236459 94 438 87 560 40 445 24 37 15 32 93 40 7 910 55 1118 26 690 60 715 64 893 29 555 82 668 53 820 5 768 34 724 78 699 59 523 33 112
201 0.2186246551324858 1.1349148936313449 2.1430734879366367 124 87 17 0.31640707925748041 94 104 87 561 40 123
202 0.64989165492959822 1.1972648960833077 1.1843899681264314 254 250 80 0.33415909197844945 94 470 87 563 40 486
203 1.0542648731439617 1.1992010588176123 1.6738367944184203 255 241 99 0.11836064915388667 94 467 87 565 40 478
204 -0.30899489540328773 1.1731823143724078 2.1739932870896181 162 174 200 0.20245311991628587 94 456 87 574 40 464 7 727 55 840 26 538 60 528 41 802 17 805 29 523
206 1.0270658221635667 1.2523965742069971 1.6671268550083118 254 236 89 0.011513587908016383 94 487 87 580
207 -0.12123951954083884 1.252884277354676 2.1845167948949067 87 82 23 1.0731029041865148 94 477 87 589 40 487 7 719 55 1103 46 1098 41 1041 51 920 90 1007 36 951 9 199 79 641 13 747
208 0.37772723117322565 1.3071082428413063 1.8348947432220855 41 50 72 0.20015337675202813 94 504 87 599 40 182
209 0.37772723117322565 1.3071082428413063 1.8348947432220855 41 50 72 0.20015337675202813 94 505 87 600 40 183
211 0.64431061243964427 1.3554750230412191 1.3089850363013373 255 230 69 0.24039651177558485 94 537 87 611 40 538
212 0.64431061243964427 1.3554750230412191 1.3089850363013373 255 230 69 0.24039651177558485 94 538 87 612 40 539
213 0.76785798571979558 1.371703436219891 1.3006068699128168 118 93 24 0.15323713869264996 94 547 87 619 40 546 24 455
214 0.022332709997254792 1.3705693958533882 2.1490932354903021 9 14 21 0.57867136264809427 94 516 87 623 40 519 93 531 7 909 46 1114 55 1250 17 1039
215 1.4816707828284001 1.4700572723593801 2.6377301315104673 226 213 178 0.86024775936804265 94 541 87 632 40 545 93 465
216 -0.76828392188040262 1.4082948224429359 2.7166591911701747 1 1 4 0.089561096285572017 94 166 87 633 40 195 7 469
217 0.98990577359215759 1.4438138694079248 1.5355310044878847 254 234 75 0.14184846293214773 94 733 87 634 40 728
218 1.5878240489725843 1.5145626708556401 2.8263407517312689 228 215 181 0.24664540027432466 94 551 87 636 40 558 24 489 93 470 18 595 70 553 42 443 99 604 75 563
219 0.91656118633760486 1.452796786474974 1.502907575457118 204 123 31 0.15791018149055641 94 568 87 638 40 576
220 -0.31487079043470434 1.4591678408474946 2.4623903302914445 3 3 4 0.18845834214090165 94 543 40 209 87 242
221 0.47892921934517635 1.4918355669505832 2.3097436799907483 60 69 93 0.22341605644400261 94 191 87 642 40 223
222 0.30643342061149237 1.5042564925778108 2.4552337239120674 110 86 20 0.14328496542471375 94 190 87 643 40 222
223 -1.0250439041073887 1.4860716518953527 2.6692414674086544 143 143 130 0.29886662661500063 94 545 87 645 40 533 24 322 93 353 7 784 55 1161 26 736 60 736 53 679 64 959 41 1212 17 1214 95 1159 97 1069 51 1021 98 726 83 717 90 519 91 704 9 889 29 911 82 702 5 846 34 776 78 750 54 793 4 816 43 694 88 638 68 284 59 804 21 856 44 455 92 492 47 581 65 778 18 145 70 100 49 178
224 -0.99870570389753166 1.5086128369266281 2.6562285195323403 54 43 44 0.30191220446341394 94 554 87 649 40 543 24 70 93 96 18 147
225 -0.62223294673769491 1.5503040866206175 2.6439398947984056 4 5 7 0.10041202838822422 94 560 87 656 40 563 93 136
226 0.4237146930279726 1.663213347157557 2.646471995777623 211 192 153 0.19112539778884163 94 583 87 671 40 582 93 446 7 737 18 550 70 334
227 -0.11818606511356522 1.6380977820982172 2.4651184730079336 2 2 3 0.29282365733604321 94 749 87 672 40 580 7 756 55 872
228 0.55410217903412962 1.7236730980310677 2.6261641793853192 222 204 164 0.1037397536814945 94 587 87 677 40 587
229 0.61879944575612167 1.7527098897728568 2.6094231315561194 224 207 168 0.077834799477728867 94 591 87 679 40 589
230 0.68506308465792198 1.7843861940980117 2.5831341227283482 224 208 170 0.29875814046451588 94 596 87 684 40 593 93 463 7 732 55 830 26 518 60 505 46 829 64 537 41 266 17 330 95 353 51 254 90 206 98 181 91 242 9 838 70 349 18 586 49 280 23 588
231 0.69239433065400091 1.8176427432226478 2.5625932694581679 111 104 93 0.29897598884112442 94 601 87 688 40 598 7 913 55 1100 26 525 60 509 46 1142 64 540 41 798 17 833 95 788 97 740 51 740 90 648 30 623 98 854 83 833 91 889 9 1170 79 559 13 632 3 302
232 0.15009999388317349 1.760479034673029 2.2926069209480202 3 3 3 1.236803243669488 94 599 87 689 40 595 55 860 41 1123 97 989 36 835 30 838
233 0.9402026984708155 2.2910952203965733 6.0947272558996932 228 212 173 0.79890796831762834 15 465 87 691
234 0.90634239424352514 1.9494704248466939 2.4926160901830219 227 213 175 0.14858039009447879 94 608 87 697 40 606 7 301 55 270 46 438
235 0.52136216733396068 2.1293508991780445 2.3017154331232663 106 70 53 0.14492075970093016 94 616 87 705 40 616
236 0.61947449797431675 2.2801239092318819 2.2167699388097226 105 71 52 0.16166854371173703 94 621 87 707 40 619 7 779 64 229
237 0.61886219055114122 2.2776450367811782 2.2080584153074501 105 71 52 0.11204891044979391 94 622 87 708 40 620 7 780
238 -0.48895469524678081 0.45882540201348976 2.0953378092251649 255 233 73 0.10065309346287717 94 624 87 713 40 623
239 -0.31035584435855518 0.4740300605784174 2.0671933859999463 255 241 70 0.11256146858114406 94 797 87 714 40 811 24 700 15 638 70 356
240 -0.26602581864317887 0.49319143930899878 2.0539396855740013 255 233 74 0.085792454801647558 94 627 87 718 40 625
241 -0.5261798655084311 0.51113574472686807 2.0120984109879929 255 225 72 0.24962419502368549 94 629 87 722 40 626 7 829 55 978
242 -0.18141913137108853 0.53477897519219564 2.0365449722296369 255 245 70 0.1872487948135185 94 630 87 723 40 627 24 507 15 487 93 483 70 360
243 -0.29678332707201932 0.54678732371501937 2.0092457613231955 255 232 74 0.11679341318951021 94 632 87 726 40 628
244 -0.27872453019152799 0.55603758592174601 2.0101747379441162 255 238 71 0.026786892625513158 94 802 87 728 40 817
245 -0.23230943186432737 0.57559956822825409 1.9993371666559732 255 232 74 0.14360910543916425 94 633 87 730 40 630
246 -0.23230943186432737 0.57559956822825409 1.9993371666559732 255 232 74 0.14360910543916425 94 634 87 731 40 631
247 -0.33227249447124829 0.5969228456650898 1.9830066861925024 255 232 74 0.043018015423954468 94 636 87 733 40 632
248 -0.17047098924270734 0.60303842288260312 1.9845537223708845 255 234 76 0.039116498746312844 94 638 87 734 40 634
249 -0.2036792179152995 0.6546344580193928 1.9556376566927747 255 232 75 0.026139056266122923 94 644 87 739 40 640
250 -0.16033467523271672 0.64726757679310587 2.0131557916231402 254 228 69 0.19992058167057017 94 338 87 740 40 642
251 -0.36110598629695501 0.65152924053449124 1.934617605473854 255 232 74 0.051820111512827748 94 642 87 741 40 638
252 -0.36110598629695501 0.65152924053449124 1.934617605473854 255 232 74 0.051820111512827748 94 643 87 742 40 639
253 0.53005384644489006 0.72391955513358308 1.8527516906025516 119 104 35 0.13326847984239379 94 648 87 743 40 645 93 501
254 0.73678480771195132 0.80158713898830292 1.5364846784243613 192 204 234 0.13492342155544376 94 658 87 746 40 655
255 -0.12472349081316184 0.66607540165660861 2.2563192565660475 145 81 12 0.12447733036880608 94 344 87 748 40 360
256 -0.66031477247525772 0.76597820810614436 2.3841462474084554 166 139 50 0.16595476858795538 94 660 87 755 40 842
257 -0.15769049258110709 0.78111195888689189 2.4382390785319075 55 44 40 0.086127247223417761 94 662 87 756 40 656
258 0.94663421210414267 0.9015457528003139 1.8703321982798227 255 239 64 0.10243543785971361 94 670 87 757 40 665
259 0.94663421210414267 0.9015457528003139 1.8703321982798227 255 239 64 0.10243543785971361 94 671 87 758 40 664
260 1.0572347355102787 0.91963481849782447 1.8800690651006908 254 201 49 0.22500196753213925 94 672 87 759 40 667 24 564
261 1.0557854655294421 0.92051074031292945 1.8963510185804304 254 201 49 0.53146625205038622 94 673 87 760 93 743 44 672 92 733 18 685 42 302
262 0.0026671366773040051 0.86555813781215785 2.3343999413477823 253 216 66 0.16310870183349413 94 828 87 765 40 850
263 1.1891336935017491 0.96640771875720799 1.8406512638141543 251 196 49 0.053795791987947504 94 681 87 766 40 679
264 1.1903101132270075 0.9662604604838444 1.8537207675516936 251 196 49 0.23307929624735199 94 682 87 767 40 680 26 593 60 586 53 516
265 0.094784336024361676 0.91074128772846785 2.3208537869293013 193 162 65 0.16127691239175498 94 674 87 768 40 668
266 -0.27450569618802562 0.93848811479905037 1.995553930782453 119 72 8 0.033280105425999719 94 680 87 771 40 671
267 -0.34526604775425929 0.93941750420617853 1.9808139136409655 50 63 91 0.12766685562887706 94 679 87 772 40 670
268 0.16321871697531826 0.97479627747417086 2.2904334856182325 125 91 19 0.085843730327436626 94 683 87 776 40 682
269 -0.4521049604394502 0.9759962889929692 2.3092678020515778 181 187 209 0.070368241856176281 94 834 87 778 55 1106
270 -0.10678988343846135 0.99382002187795015 2.2447175104679258 123 90 21 0.40994052260480129 94 689 87 779 40 407 24 302 7 859 26 644 60 644 53 636 9 778 91 61
271 0.129918088664148 1.0275983194854219 2.2476585383279435 131 96 21 0.11419598211804609 94 691 87 781 40 687 44 488 92 536
272 -0.0018495535369132676 1.0711683423080234 2.1941389512850811 220 182 54 0.02410803984208364 94 692 87 785 40 691
273 -0.28135168301054653 1.0709531129658614 2.2044217622548916 76 61 14 0.064522929556566522 94 694 87 787 40 688
275 0.58788288692083257 1.2307622580579607 1.3903005706335938 138 121 35 0.37485904980607881 94 712 87 798 40 494
276 0.2925769893398299 1.2201879341034425 1.6917241474485361 44 57 84 0.50458743303891118 94 472 87 800 40 484
277 -0.66239234472744013 1.1808696628931026 2.4136268452625567 28 24 5 0.2076103980053966 94 848 87 801 24 303
278 -0.23603032107046737 1.2298671924215614 2.1945057998495781 128 140 170 0.39349048031039757 94 711 87 805 40 706 93 342 7 908 55 1115 64 871 9 800
279 -1.1956940206590654 1.2277713086486521 2.8468169994647545 0 0 0 0.58133019436262945 94 707 87 806 91 1111
280 0.21202820219382357 1.2837544782953776 2.0653198913391386 97 70 13 0.17640190434938607 94 489 87 807 40 710
281 0.25323536358309434 1.308868542845731 2.0935093997450651 108 89 22 0.11943774437787942 94 496 87 809 40 504
282 0.25323536358309434 1.308868542845731 2.0935093997450651 108 89 22 0.11943774437787942 94 497 87 810 40 505
283 0.50560352147261156 1.415023192087459 2.2052379904565744 38 35 26 0.051306379226323161 94 723 87 821 40 720
284 0.048102414433261687 1.4489699824189737 2.3153334730234194 19 12 7 0.089089989107259362 94 724 87 825 40 537
285 0.83745444041921246 1.4106979583485981 0.31909043408728777 253 228 75 0.90753164823302634 94 753 87 829 40 752
286 0.89529510855477112 1.5075127528325361 1.4343626408382071 254 251 74 0.20610048940913248 94 750 87 834 40 741
287 0.92351946907294313 1.5472515435510028 1.4788856601353828 254 229 68 0.20067897870373036 94 751 87 838 40 746 93 593
288 0.47291275575698938 1.6022970928013365 2.4056361997076663 216 193 150 0.38600377562458471 94 582 87 839 40 579 7 722
289 -0.9267205325541833 1.573483989015811 2.5837622412267374 114 80 64 0.29546502493652177 94 737 87 840 40 726 24 555 7 935 55 1162 46 1197 41 1205 17 1210 95 1157 97 1066 51 1019 90 746 98 728 83 718 91 715 9 905 13 239 49 567
290 -0.8620936981292906 1.5833285828006258 2.5514985874692671 108 76 62 0.26526183909616852 94 744 87 844 40 727 24 559 15 519 93 529 7 1136 55 1354 26 919 60 923 64 1083
292 1.6771600521153915 1.8958699699227179 4.228339906484802 232 217 181 0.16452461329909271 87 854 40 745
293 -0.26027354836372429 1.7785644771501401 2.5188718336008251 67 73 72 0.35478975673208735 94 761 87 870 40 755 7 928 26 728 60 730 82 655 5 548 21 771
294 0.98304449858820209 1.8283373064050057 2.5516722625110444 233 217 179 0.22103430205547361 94 768 87 871 40 763
295 0.65802170673481875 1.8369408258907944 2.5512132672780918 229 212 174 0.67251890802882752 94 767 87 872 40 762 7 915 26 668 60 652 46 838 64 549 41 285 46 836 17 348 95 366 97 350 51 289 90 226 98 223 83 218 91 268
296 0.88049800355637975 1.9965281504244605 2.4382153901023345 231 215 178 0.20942734499815976 94 774 87 888 40 776
297 1.1728902060536177 2.0648672969743331 2.4439297482156501 230 216 180 0.15384333110088397 94 781 87 893 40 783
299 -0.63567556499952671 0.38279413381340782 2.1209643933475486 255 233 74 0.8237963030502693 94 791 87 918 40 808 24 697 7 951 55 971 26 625
300 -0.651669329920882 0.4500766845059902 2.0125614875486391 255 237 76 0.10472362955815917 94 793 87 919 40 810
301 -0.3535068944443297 0.47265772614347312 1.9435047664173077 255 230 67 0.47106067209370395 94 796 87 920 40 1072 93 697
304 0.83758672887445684 0.6697542485810144 1.681068763947327 172 179 200 0.56937495237577063 94 808 87 927 40 829
305 -0.14607247254458822 0.62294816044127477 1.9802714439583 255 241 70 0.059732099406171101 94 807 87 930 40 824
306 0.84576021221424913 0.72267681621267488 1.6788355519089899 0 0 1 0.10183818186798339 94 1082 87 932 40 1083
307 1.1955865637889893 0.72863485026337271 1.7531570917509089 0 0 0 1.1347765433677859 94 815 87 933 24 1015 40 832 93 1007 18 1089 70 836 23 895
309 -0.24912926516162567 0.63635407731783 1.9632989617880803 255 238 72 0.11926675349157627 94 809 87 935 40 826 44 609 92 667
310 -0.34374325553433061 0.66082553906244301 1.9399486134900754 255 239 69 0.25091358840315531 94 812 87 937 40 831 44 600 92 657
311 0.62535605700283015 0.70958432772703095 1.9437807618107401 208 212 231 0.10005194617101427 94 1086 87 940 40 1085
312 0.62535605700283015 0.70958432772703095 1.9437807618107401 208 212 231 0.10005194617101427 94 1085 87 941 40 1084
313 0.99515352794273992 0.74394462106042925 1.9261925086890574 165 94 15 0.33502992284595695 94 653 87 942 40 649 40 834
314 0.60523672951817142 0.76885083453680991 1.821091969073376 6 6 8 0.093183207142348554 94 816 87 943 40 837
315 0.79401834953373196 0.82915468532645553 1.5205227004471433 3 2 1 0.27817513375291247 94 818 87 944 40 843
316 0.55599066883879755 0.78756059936668088 1.8366458569175574 33 34 42 0.17068421086202698 94 817 87 945 40 840
317 -0.23780631879317801 0.77514237587240897 2.1414110177726893 255 209 55 0.29539811916894448 94 819 87 946 40 841
318 1.2522216069241805 0.87284020862704048 1.8297377357459408 255 251 74 0.9145035583950849 94 822 87 947 40 849 26 744 60 365 18 960 49 985 91 749 3 607 23 1044
320 -0.3281716029193269 0.84017968295948087 1.9413785058365374 51 64 91 0.21975888561817644 94 1093 87 951 40 1095
321 -0.22255324519294487 0.83941118729762865 2.3898805476371079 255 215 61 0.039114045115270606 94 824 87 954 40 846
322 0.040590653697787991 0.84515055340965728 2.3969398055735121 166 97 8 0.22014292913005148 94 826 87 955 40 848
323 -0.46660517299044291 0.89172972160442365 2.0604839135519559 8 8 9 0.20260585928307695 94 830 87 959 40 853
324 0.19561885426417855 0.91164257985744734 2.3513875264290842 23 26 32 0.22705643247854371 94 1099 87 960 40 854
325 1.2549964306197439 1.00674391903038 1.8155436877958806 30 21 6 0.68446106298216236 94 835 87 961 60 750
326 -0.52741225165042382 0.91590514389635946 2.1983078440098693 230 182 49 0.23040729456431355 94 675 87 962 40 666
327 -0.099576684518812769 0.94619692631143915 2.2825832372878594 255 207 55 0.075319315551881566 94 832 87 964 40 677
328 0.38777397143734782 1.0596987347694886 1.587192977314736 49 50 61 0.23051445686523922 94 1107 87 970 40 864
329 0.018974456826604796 1.0090626327388197 2.2477088063139701 196 164 58 0.052714244655067445 94 838 87 972 40 861
330 -0.23520408474948037 1.1921113697190733 2.195697872288179 74 64 14 0.44285774541988382 94 849 87 983 40 871 24 541 15 323 93 520 7 1010 55 1257 60 688 53 482 82 459 18 975 49 1021
331 -0.31944456921031522 1.2920590672410315 2.3235095514911275 112 101 28 1.3724910196111386 94 859 87 990 40 880 7 1030 55 1413 46 1540 41 1461 95 1432 97 1315 51 1276 90 1204 30 1148 36 1135 98 1260 83 1234 91 1291 9 1567 29 1140 79 842 77 807 58 803 48 810
332 -0.23831666701090418 1.301989103761712 2.3222040544465004 103 73 13 0.10204620744326383 94 860 87 992 40 881
334 0.60466168259041275 1.666043471387574 2.6325408278983891 237 215 171 0.13383449342932882 94 896 87 1017 40 910
335 1.7491739189828031 1.8366981284760646 4.2911886175862959 238 220 182 0.25343005801125323 94 894 87 1020 40 908
337 0.73565404128290635 1.7220115662268438 2.6002626995624571 238 219 178 0.58530596876666297 94 905 87 1027 40 918 93 817 7 1007 55 1235 46 1288 90 850 30 612 98 838 83 818 91 878 9 1337 18 807 70 632 42 492
338 0.41338120853656046 1.7216610173359377 2.6312585586546238 220 199 157 0.057715794363764471 94 904 87 1029 40 917
339 0.47742974790956616 1.7475472910910514 2.5892604905280798 225 204 162 0.040689792696158834 94 909 87 1035 40 922
340 0.38121910400337966 1.7727138345922078 2.5768127776687524 221 201 158 0.1361740815752622 94 916 87 1045 40 928 24 788 9 1174
341 0.38003907791080754 1.7769920512150448 2.6093952555549267 221 201 158 0.12893574636838345 94 915 87 1046 40 927
342 0.54221574700527886 1.7779595009203462 2.5821945600201039 230 210 167 0.074253194148437465 94 917 87 1047 40 929
343 0.44385328940622587 1.8033175586575443 2.5720574196264394 223 203 162 0.082676612753445136 94 922 87 1052 40 936
344 0.60650590717274999 1.8035911562054252 2.5452778195483132 236 215 172 0.16283378466245868 94 926 87 1054 40 937
345 0.9931246039562317 1.8310271561257059 2.5412081737429038 239 221 182 0.11329524637743504 15 806 87 1057 24 882
346 -0.15358069546879549 1.8050952718189763 2.5115195313604612 90 96 93 0.46763176505051385 94 925 87 1059 40 1141 7 1237 55 1338 26 1003 60 1013 53 948 46 1386 64 1059 41 1312 17 1346 95 1123 97 1038 51 1005 90 733 30 717 36 703 98 961 83 697 91 979 9 1204 29 848 82 803 5 942 34 707 68 333 21 764 33 628 48 427 81 424 2 436 18 1011
347 0.50887359081042893 1.832737404928857 2.5593540704590314 228 209 168 0.084640181970128389 94 933 87 1065 40 944
348 0.57298143516189282 1.8614796222544292 2.5375238458805165 234 214 173 0.076306303712828025 94 942 87 1070 40 952
349 0.57298143516189282 1.8614796222544292 2.5375238458805165 234 214 173 0.076306303712828025 94 943 87 1071 40 953
350 1.1180730560339627 1.893258371431157 2.5041812061284312 235 219 181 0.21470834515625606 15 854 87 1074 7 1001
351 0.80190681753618387 2.3370541173285799 6.0657947941173314 234 216 175 0.99266580415967287 15 753 87 1079
352 0.63712758849736273 1.8888536302453096 2.5150800900018289 234 216 175 0.038854715301298713 94 952 87 1080 40 960
353 0.54010862228495715 1.9162897513746686 2.5153276730011762 230 212 171 0.12375404939832985 94 958 87 1084 40 964
354 0.70192845694026584 1.9184520797122229 2.5054705040784571 233 216 175 0.098453256945127007 94 960 87 1086 40 969
355 0.91302789094880066 2.3830280883582824 6.0149703156541827 233 216 175 1.1248817633625894 15 771 87 1087
356 0.76830646893948096 1.9452970576556481 2.4873805259589488 239 219 175 0.25593363366157867 94 969 87 1090 7 1041 55 1252 26 832 60 815 46 1300 9 1356
357 0.44291759923925317 1.9345675170688781 2.4654745295991605 226 208 166 0.066429691370781793 94 964 87 1094 40 975
358 0.60415889296035585 1.9406707688158031 2.4740953355161359 234 216 173 0.043747828413241326 94 966 87 1096 40 977
359 -0.091609551942273604 1.9318072286595296 2.367052206812295 89 64 54 0.4619672291924965 94 971 87 1098 40 974 24 641 93 451 7 1132 55 1344 60 914 46 1399 9 1213 70 328
360 0.34535452845737402 1.9592507790220501 2.4532976963712607 221 204 166 0.088452345439556004 94 972 87 1099 40 981 24 834
361 0.50706848473702426 1.9653798209353477 2.4596045355709859 230 212 172 0.036516361550795649 94 978 87 1102 40 984
362 0.40965845812762891 1.9892117266450644 2.4434596142901182 223 206 168 0.075667498400279545 94 985 87 1110 40 990
363 0.40965845812762891 1.9892117266450644 2.4434596142901182 223 206 168 0.075667498400279545 94 986 87 1111 40 991
364 0.89457960110250057 2.0026804110720566 2.4499211292328678 236 218 177 0.11141621175409633 94 992 87 1116 40 997 24 919
365 0.894698407702189 2.0031222945465386 2.4490160260938159 236 218 177 0.078586960523799002 94 993 87 1117 40 998 46 1156
366 0.24516217172813365 1.9914736287897721 2.4217994017473234 222 205 168 0.31165807871818363 94 987 87 1120 24 833 93 825 18 1024
367 0.47473555493214886 2.0173145055470134 2.4209709310554777 228 210 171 0.089988546330398614 94 996 87 1129 40 1000
368 0.86245767064750622 2.0594539387483737 2.4312888170531508 234 217 177 0.064677644066256354 94 1013 87 1139 40 1016
369 1.1885969431159262 2.0667362095466713 2.4356977948487097 233 218 179 0.31272176129420021 94 1018 87 1143 40 1022 7 1015 64 773 9 1355
370 0.37229661312234014 2.0428033010346027 2.3531931409056588 221 204 166 0.12380347105407981 94 1009 87 1145 40 1013
371 0.43754957319000265 2.0712522718101369 2.3778898733652061 223 206 169 0.54893968172962904 94 1019 87 1146 40 1020 24 895 7 1114 55 1324 41 1133 17 1144
372 0.60312716465730865 2.0756637745231932 2.3921930306947008 234 215 175 0.024659498394141149 94 1020 87 1147 40 1021
373 1.1515087079834005 2.1182419868724254 2.3878775480995649 237 220 181 0.10412595776751589 94 1034 87 1160 40 1040 24 965
374 0.50110681090730202 2.0887951680117451 2.2843182733654848 227 208 169 0.71048717894465585 94 1028 87 1161 40 1031 41 1127
375 0.56590451643642292 2.1312985874533039 2.3474950118870264 228 210 170 0.27180792224338862 94 1037 87 1171 40 1041 24 921 7 1111 55 1318
376 0.31074204405592565 2.1229143110002262 2.2817906408044486 105 71 57 0.41216957961747153 94 1036 87 1172 40 1038 24 891 7 1129 46 1389
377 0.79624773930198178 2.1653333334059299 2.3614637692576195 233 217 178 0.0490854998478292 94 1043 87 1174
378 1.1199157393632888 2.1722239354927062 2.3563622937617938 236 220 180 0.08708383248826268 94 1047 87 1178 40 1053
379 0.86115474758237143 2.1898107433789975 2.3255407988052288 234 217 178 0.15643453657093773 94 1048 87 1181 40 1054 24 958
380 0.92617955469811686 2.2203584304632495 2.3179806271973344 234 218 179 0.075251507163936748 94 1051 87 1185 40 1059
381 0.78371023030672649 2.4161926330059043 2.1430919535421209 66 66 65 0.20373977140433222 94 788 87 1197 64 570
382 1.00575233372539 2.5635443551352415 2.3028004186241788 65 63 61 1.5342037854121739 94 1063 87 1198 40 1162
383 -0.63754168231603625 0.33933681466638715 2.0853067418849713 0 0 0 0.17790734570983288 94 1066 87 1199 40 1068
384 -0.27857681881054136 0.41588199897764616 2.1121665512397891 255 244 73 0.37151180198249295 94 1068 87 1202 40 1071 24 985
385 -0.20754526583174104 0.44771206573825811 2.1051693337945205 255 242 74 0.36082452901574646 94 1069 87 1203 40 1073 24 988 7 945 55 1184 26 937 64 1010
386 -0.72320550473615131 0.45796288589425405 2.0193357799418639 0 0 0 1.7733205246261434 94 1070 87 1204 24 980 46 1451 18 1083
387 0.54571432720817936 0.6230157583466831 1.8729363860788155 0 0 0 1.1406039856728829 94 1073 87 1206 40 1078 7 1155 55 1362 46 1427 64 980 41 1231 17 1385 95 1174 97 917 51 1030 90 965 30 919 36 903 98 991 83 959 9 1453 60 1029 58 569
388 -0.69775078623512221 0.60758248769833723 1.9776071389358725 255 227 72 0.12921345302366075 94 1075 87 1209 40 1076 24 986 15 910 93 987 70 567
389 -0.69766054709608571 0.60765975490108237 1.9771596765897401 255 227 72 0.13698702007317629 94 1076 87 1210 40 1077 24 987 93 986 70 568
390 0.5107400841575982 0.76195458227112434 1.862696052299385 148 159 189 0.088047894358274911 94 1088 87 1214 40 836
391 -0.24770857782616093 0.78335368251229254 1.9125456437317871 148 106 21 0.11952902411570827 94 1090 87 1217 40 1092 24 716 15 495
392 0.70852483993456761 0.87550951306719071 1.4960233661281341 26 27 30 0.14387542497782183 94 1094 87 1220 40 1175
393 0.9725788653677484 0.89888197840179784 1.9154008615530331 255 213 52 0.055398839799327367 94 1097 87 1222 40 1098
394 -0.63153789203536914 0.86841354648785374 2.1998496951888162 6 6 7 0.1232102363899925 94 1096 87 1224 40 1096
395 -0.30861240344554336 0.90965374098523155 1.9226766755849727 198 205 230 0.058540384045584641 94 1098 87 1225 40 1097
396 -0.16868375908639299 0.984217563132879 2.2198535683516187 22 22 27 0.081267310019124253 94 1103 87 1229 40 1103
397 -0.12017422191419544 1.0331618960697997 2.227200576146112 246 197 51 0.039584122046577824 94 1105 87 1233 40 1106
399 1.1990555202812856 1.115069842097036 1.7712458039153574 4 3 1 0.32727128403605416 94 1112 87 1235 40 1113
400 -0.97303388150118086 0.99997338109660372 2.5005950269032589 89 107 143 0.24162022824294005 94 836 87 1237 40 859 91 1180 9 1486
401 -0.1963561358526249 1.0420348482402468 2.2604411001040954 254 224 58 1.4863744523342062 94 1189 87 1240 7 987
402 -0.19366634369330027 1.0487639130581625 2.2191768821666344 254 224 58 0.75587017040066107 94 1190 87 1241 93 1006
403 0.16688651371691646 1.0891554723138206 1.9596992394064365 210 177 59 0.057088468892581318 94 1109 87 1242 40 1107
404 0.16688651371691646 1.0891554723138206 1.9596992394064365 210 177 59 0.057088468892581318 94 1110 87 1243 40 1108
406 0.056669560083741466 1.2218421051835198 1.9021963734331249 89 106 144 0.11392611049575448 94 1117 87 1247 40 1119
407 -0.80954417084703678 1.1903963225488381 2.4833413691268422 8 9 16 0.12566186958869158 94 1115 87 1248 40 1117
408 0.28452698869363136 1.4509312101633507 2.5526252238353524 65 47 8 0.16303605657788478 94 874 87 1253 40 887
409 0.28452698869363136 1.4509312101633507 2.5526252238353524 65 47 8 0.16303605657788478 94 875 87 1254 40 888
411 0.35151270806857854 1.6199748876176003 2.6628770661784791 79 66 53 0.039200554457812856 94 1133 87 1259 40 1206
412 0.53238369689810539 1.6275823942511489 2.532827780047282 235 213 168 1.3538319956599096 94 892 87 1260 40 906 18 1013
413 -0.54353188591758939 1.6291788794458821 2.6009032232385341 80 89 90 0.26378683113213452 94 1134 87 1263 40 1205 7 1292 55 1426 26 1064 60 1087 53 1024 46 1392 41 1426 17 1365 95 1285 97 1167 51 1013 90 938 30 721 36 713 9 1377 91 969 29 1106 82 932 21 1110
414 0.25729788132534653 1.6600359923577981 2.3805598097134175 29 25 20 0.9363013777062722 94 1212 87 1267 40 1207 24 1131 7 1219
415 1.1847503395982519 1.9238090558371093 2.4910084036945821 238 221 182 0.076571579571099113 94 1150 87 1275 40 1148
416 1.2488144067827038 1.953091208377745 2.4795000214580076 236 219 182 0.35774119288161482 15 993 87 1276 40 1150 94 974 24 1074 93 1063 7 998 55 1216 9 1342 44 767 92 825 18 1143 70 884 23 1090 42 709
418 1.2244018964881647 2.1534119619087866 2.3839679226457688 241 222 183 0.17980961708215809 94 1154 87 1279 24 1078 44 844
419 0.84608843614465246 2.3163398049122668 2.2291065194635276 227 210 173 0.64692711979864315 94 1160 87 1285 40 1156 46 1365 95 842 97 374 18 1072
420 1.0943843827557538 2.3621618618192444 2.2335112409114992 241 220 179 0.54293982226361093 15 1065 94 1162 87 1287 24 1145 93 1117 7 1230 55 1409 26 997 60 999 53 879 46 1341 17 1311 9 1512 29 959 92 914
422 -0.45734749802076125 0.28971921486968283 2.1650755066095315 0 0 0 1.2244232519165978 94 1065 87 1289 40 1067 7 1300 55 1497 15 634
423 -0.5274789151270366 0.32814894116273441 2.2003134834830878 255 234 74 0.11588449362967131 94 1168 87 1290 40 1163
424 0.78512665861060371 0.73517657712993956 1.6111108384770809 192 203 231 0.13554403526290712 94 1173 87 1293 40 1169
425 0.78512665861060371 0.73517657712993956 1.6111108384770809 192 203 231 0.13554403526290712 94 1174 87 1294 40 1170
426 -0.57427961217562773 0.63790863513881946 1.9441763240563787 255 223 59 0.052319874239269197 94 1170 87 1296 40 1165
427 0.46549661014664379 0.69623172145118828 2.2328850500350463 20 15 9 2.0913614864511181 94 1087 87 1297 91 1017
428 0.74987962320581802 0.82433526126992362 1.5669616784569886 155 164 185 0.28576262148765347 94 1176 87 1300 40 1174
430 0.19055930589884035 0.86201400632756975 2.6167306311327097 31 32 39 0.15389508067394961 94 1228 87 1307 40 1176
431 0.62232107295299155 1.0097033436457095 1.4453693626778021 196 205 231 0.30585690625379958 94 1187 87 1309 40 1183
432 0.62071060809528456 1.0101930395238479 1.4132552352504359 196 205 231 0.37570285261069669 94 1188 87 1310 40 1184 24 1169
433 -0.81400746591664075 0.90270409444710387 2.3044161678752402 114 113 100 0.26632555845187106 94 1180 87 1312 40 1178
434 -0.21733698933606835 0.96982891325642362 2.1133419561151383 252 209 55 1.1665625365678538 94 1184 87 1313 40 1227 24 1155
435 -0.037378974193081303 0.98453242405050789 2.2526848770820238 36 28 9 0.042844571487192125 94 1185 87 1315 40 1181
436 0.32854563859228042 1.0514966121429958 1.6194256620479213 240 207 70 0.26888330853410697 94 1232 87 1320 40 1233
437 1.3204193139961216 1.1028730297776217 1.7922270614653095 254 252 117 0.68871170989328612 94 1195 87 1321 40 1191 93 1136 7 1255 26 1077 60 1097 53 1037 82 1019
438 -0.050287540530528176 1.0589840117283496 2.2104525726184172 228 179 46 0.26687070225729415 94 1193 87 1322 40 1185 7 1280 55 1465 46 1467 64 1244 17 1421 51 1076 90 1001 30 967 98 1029 83 1001 91 1048 9 1279 79 254
439 -0.053307934351823759 1.0591069682957994 2.2165827753983596 228 179 46 0.31349468070726566 94 1192 87 1323 40 1186 7 1279 26 1091 88 941 68 924
440 0.29440901757413374 1.1010882868781968 1.6467833542156451 84 78 46 0.20012561886511973 94 1111 87 1324 40 1109
443 0.067666073633739179 1.1288615635074075 1.9357762324956136 205 176 56 0.052144497778522557 94 1201 87 1330 40 1194
444 -0.40438485000870839 1.1218323751534081 2.189527065026347 255 217 58 0.2781682004434603 94 1200 87 1334 40 1189 93 1084 7 1212 46 1275 98 804 83 773 91 831 9 1294 79 493 18 1113
445 -0.72529864115272547 1.1340573694562397 2.4023883036251426 11 10 5 0.44163062369605111 94 1198 87 1335 40 1192 15 664
446 -0.73026818411101579 1.1339411694628097 2.4190035179119955 11 10 5 0.37552674395224461 94 1199 87 1336 40 1193 24 730
447 0.62570760136951731 1.4070331957522084 1.5217043776427885 105 92 27 1.1654784891090542 94 1124 87 1340 40 1129
448 0.13571605128055247 1.4280963506340383 2.1035299229256346 72 86 118 0.04254634522761893 94 1208 87 1341 40 1202
449 -0.92139779399673782 1.4504749003846378 2.667681706046928 102 111 110 1.2050358042701312 94 1207 87 1342 40 1200 24 1110 93 1092 55 1486 7 1293 26 1069 60 1091 53 1032 64 1229 41 1500 7 1334 95 1419 97 1306 51 1234 51 1267 90 1192 30 1115 36 1085 82 950 5 1132 34 1027 78 919 33 928 48 738 77 669 81 859 2 878
450 0.15970761911375397 1.5106429459989286 2.3794790283979679 38 31 25 0.045948242044005529 94 1210 87 1344 40 1203
451 0.85933203868863972 1.5218535391503571 1.4459727538446794 106 93 28 0.35108513059934549 94 1211 87 1345 40 1208
452 0.34601888714897983 2.0833108141390739 2.3357084310861413 103 70 54 0.94770398677030687 15 1051 87 1347 40 1211 24 1136 93 1102 26 1063 60 1077 88 929 34 1065 70 921 42 732 24 1178 99 876 75 875
455 -0.56873812133500767 0.71602729251114483 2.0206889446839944 27 27 54 0.28649912570949226 94 1175 87 1359 40 1172
456 -0.79840802969533775 0.7733941623123658 2.1984403215143367 0 0 0 1.1604607851684334 94 1177 87 1362 24 1084 93 1074
457 0.77477847976487513 0.90075423852956238 1.5884877074166839 35 27 15 0.66884371773448281 94 1226 87 1363 40 1258
458 1.377288792255984 0.98944530365822936 1.8640249084916103 169 111 24 0.79998142690104923 94 1230 87 1364 40 1231 24 1193 15 1106 93 1134 7 1299 55 1440 26 1075 60 1096 53 1034 82 1017 88 965 18 1162 70 962 13 1034 23 1145 99 923 75 913 89 703
459 -1.0515475265717424 1.0773576324820535 2.64601481265897 0 0 0 1.6222484452975419 94 1233 87 1369 9 1604
460 1.2663591423746992 1.2080015099207606 1.7897914354281019 190 138 71 0.71297898707679452 94 1235 87 1371 40 1198
461 0.46302283278521511 1.1736881277882651 2.0310125347330819 139 110 29 0.73058264343852664 94 1252 87 1372 40 1260
462 0.54121757480677324 1.2444255103252446 1.8085878043941606 80 89 112 0.39788114077769515 94 1237 87 1374 40 1236
463 -0.97429768279848183 1.5926751718742129 2.6119419848691501 119 83 65 1.081781147729999 94 1239 87 1377 40 1243 24 1171 7 1347 55 1534 26 1105 60 1129 53 1066 46 1596 64 1274 41 1529 17 1538 29 1217 82 1045 5 1168 34 1138 78 1106 54 1139 43 1066 68 979 59 1136 21 1144 44 861 92 925 33 984 47 1048 81 901 2 902 65 1051 70 902
464 0.17072214390280685 1.7899487462476746 2.3094736988164661 18 14 12 1.829328428495222 94 1240 87 1379 40 1263 93 1159 7 1344 55 1511 26 1100 60 1123 53 929 46 1574 83 1218 98 1221 34 875 82 986 68 611
465 0.90861513030805396 0.61831840780955749 1.7715991335363392 0 0 0 0.30937780840299595 94 1244 87 1382 40 1252
466 0.67806990097737219 0.65704990174148503 1.7993055058099034 0 0 0 0.85664698812607709 94 1256 87 1383 40 1264 46 1609 41 1542
467 0.012904909048504984 0.63412196880753091 2.2026182516955326 0 0 0 0.22361910103090474 94 1245 87 1384 40 1253 7 1357
468 0.33114656644738338 0.76354943614365844 2.202860576106271 239 204 68 1.2676229749442816 94 1248 87 1388 40 1255 7 1354 55 1520 46 1581 41 1505 17 1500 95 1404 97 1286 83 1226 91 1281 9 1577 27 656 85 627
469 0.47267027364947006 0.85726671886600303 2.1559697816847612 0 0 0 0.050334368984805748 94 1249 87 1389 40 1256
470 -0.046447506434644202 0.87370736244806513 2.1487563282572397 29 25 23 0.24659911513505295 94 1250 87 1390 40 1257
471 0.69838273842832654 1.0156077820966509 1.4105683479691651 115 89 22 0.29144823740636866 94 1251 87 1391 40 1259
472 0.80911596438434541 1.4829186054432166 1.4283068497171296 105 91 26 0.18938875460398918 94 1253 87 1394 40 1261
473 0.80911596438434541 1.4829186054432166 1.4283068497171296 105 91 26 0.18938875460398918 94 1254 87 1395 40 1262
474 -0.1138189567047643 0.56014642052778185 2.1858830877682882 255 218 60 0.94303937322954723 94 1255 87 1396 93 1160 24 1203
475 0.5527203107761457 0.69301486265380963 1.8989505734576151 241 206 70 0.32448745966713693 94 1258 87 1397 40 1266 7 1350
476 0.14041573362920032 0.68655414666464343 2.6489521788459665 0 0 0 0.52879119513668837 94 1259 87 1398 40 1267
477 1.0378000442649411 0.82606544864422049 1.9346475286966385 156 92 16 0.11464066681340478 94 1262 87 1399 40 1270
478 0.019793025605382784 0.77034618556151313 2.4224165827696895 255 228 72 1.6162763789408228 94 1261 87 1400 40 1269 24 1204 15 1118 7 1338 44 969 92 1032
479 0.91793384290624525 0.87169949813807646 1.928591095424204 255 231 60 0.2885583925056176 94 1263 87 1401 40 1271
480 -0.22973978801474379 0.89435140650403955 2.1446115635187031 255 210 60 0.72670091802624748 94 1264 87 1402 40 1272 24 1205 15 1116
481 -0.94067837002653343 1.1768837517262725 2.512885976687302 107 112 106 0.77772292717365943 94 1265 87 1403 40 1273 91 1303
482 0.34875861038125272 1.704413092782475 2.3937608067500973 212 192 151 1.4274721339474736 94 1270 87 1404 40 1277 7 1369
483 0.70750483271223463 1.175400638918193 1.2332491833829085 255 240 64 0.10934832883942613 94 1276 87 1406 40 1281
484 0.14282455211052145 1.387211042694799 2.1715482991886024 73 82 110 0.19870863442653289 94 1277 87 1407 40 1282
485 0.58452930998927222 1.5023488024863139 2.0780096070865963 241 216 166 1.7766997354134748 94 1268 87 1409 40 1241
486 -1.1741774716644087 1.6372241130100955 2.6676174905686652 0 0 0 1.593584343035134 87 1410 40 1285 93 1155 55 1553 26 1133 46 1626 41 1553 17 1562 95 1461 97 1351 51 1304 90 1237 30 1169 36 1158 98 1295 83 1269 29 1232 82 1079 78 1142 33 996 81 906 18 1240 23 1154
487 -0.83507433196605196 0.97681791177592081 2.4722766963504879 95 83 24 0.38492956708093812 94 1281 87 1411 40 1288
488 0.11977775602422938 0.58771143589252994 2.4173447065193199 0 0 0 0.32115821207858491 94 1286 87 1413 40 1293
489 1.3157218410716673 1.0018218702004478 2.1594438750047633 93 93 51 0.36651232502817271 94 1288 87 1415 40 1295
490 0.75347835195525636 0.58139898847160454 1.5921010971514726 0 0 0 0.55433062132635247 94 1293 87 1419 40 1298
491 -0.92126157535918041 0.71752142139735342 2.3369862752263537 0 0 0 0.97883041435647788 94 1294 87 1420 40 1300
492 0.20580807561377451 0.99631007992129339 1.9943247244050468 199 172 60 0.77509669739082865 94 1295 87 1421 40 1301
493 0.45512962017227793 2.4083785395171433 2.2283645012421611 0 0 0 1.4581964547698651 94 1297 87 1427 40 1305 7 1383 55 1567 26 1148 60 1173 53 1108 64 1308 9 1625 44 983
495 -0.25591545184598474 0.46307238216086538 2.0701812464641063 175 141 46 0.048209102753613627 87 6 94 3 40 3
496 -0.15895384923494807 0.57394049796804203 1.9947108163039871 167 133 44 0.058107550806735443 87 19 94 14 40 13
497 0.95330089971224485 0.67595730989119929 1.6253332364006023 128 101 22 0.15709887372255141 87 14 94 19 40 17
498 0.81436278431069631 0.69632619526745876 1.6476625261210818 78 78 81 0.28982410455893209 15 326 94 25 40 23 24 297
499 -0.28676590183065687 0.7204306359022663 1.9001751533662525 254 230 70 0.66568918559858115 87 48 40 28 55 753 41 58 17 94 95 98 97 96 51 617 90 549 30 42 36 53 98 758 29 38
500 1.2375887308336417 0.97425161032969154 1.8387645607590457 254 234 99 0.39787700528755648 87 71 40 75 7 18 55 13 46 16 9 10
501 1.0039579222949737 0.98577678230675225 1.8515297859307196 191 110 15 0.10008342556245708 87 79 94 70 40 80
502 1.163910840596158 0.98524894745117808 1.8359719793976532 172 104 19 0.16479544792399467 15 157 94 68 40 84 24 127
504 -1.1587716078459183 1.3160961426465407 2.7924785974147595 93 97 91 0.44682714237318094 87 205 40 159 91 695
505 1.0479321650519231 1.2428931435732449 1.6649976183492547 183 116 30 0.1139635149834089 87 161 94 137 40 163
506 0.67940747985008687 1.180437780287285 0.15361866946919417 255 224 54 0.29531028846874208 87 118 40 170
507 -1.0708794693800803 1.3612520967437836 2.7836301823669256 121 125 118 0.17345566943907906 87 217 94 155 40 177
508 0.1874393982928278 1.3919681151088048 2.1485090953915393 136 106 25 0.19578491997006148 87 218 40 204 24 586 93 542
510 -0.92051467821572019 1.5445286170947503 2.6345087179205162 48 39 41 0.55481321020184715 87 285 40 221 26 352 53 316 64 409 5 607 34 570 54 557 4 282 43 251 88 234 15 60 68 37 59 578 21 627
512 0.71570939434141012 1.7731147535159477 2.5864140803236673 82 74 59 0.24413222581790428 87 337 40 275 93 252 7 279 55 269 26 142 60 137 64 154 41 259
513 1.2930356747046445 2.0284064852634054 2.4622330312648431 105 98 80 0.37572645084086781 87 401 40 320 18 635 13 673 49 719 3 561 23 625
515 0.6757969908187188 0.95598357031531911 1.462174381422114 184 193 217 0.30058932572128388 15 343 40 388 26 53 60 50 53 73
516 1.146337276819033 0.94845853377931333 1.8684925655004787 185 111 18 0.16279139719369279 87 478 40 393 26 367 60 373 53 322 88 305 68 374 44 164 92 210
517 -0.1410774147007583 1.0178778189632647 2.2247157933469435 251 206 55 0.095769348739357912 15 307 87 113 40 417 24 39
518 1.1534031181405364 1.0402792772837781 1.8070287363355706 255 234 88 0.50682272103415738 15 573 94 412 40 428
519 0.7967088744879911 1.0887992471633103 0.58395288036517401 254 225 59 0.25290252160983573 87 500 40 447
520 0.11288095098098264 1.2163976362190381 1.8639854864702992 83 98 131 0.25990649278323069 87 581 40 474 24 82
522 1.0948898461891425 1.2053646976510457 1.6750350456877461 255 238 78 0.34199997110335201 87 567 94 469 40 483 53 522
523 -0.1437243900888597 1.3921859323571399 2.402797161922043 7 3 2 0.02509478805239973 87 628 94 518 40 518
524 1.5790028921918204 1.7525074096151916 4.6828200076485889 250 226 108 1.0703480837165742 87 658 40 570
525 0.32941197204485989 1.5643077453778356 2.457371421724952 123 93 21 0.18077868997181726 87 655 94 571 40 574
526 0.16656940834456888 2.0990876608849658 2.2820872791516864 38 26 23 0.12708187705101828 87 704 40 613 64 299
527 0.58745480972568076 2.1721110527434462 2.3403030530123057 106 74 57 0.55950694047468097 87 424 94 617 40 617 93 684 7 927 55 865
530 0.078077101119190445 1.5712658491988216 2.4218493704398645 7 7 8 0.42744980771036828 87 1011 94 745 40 729
532 -0.88238522341084269 1.6939268659512374 2.65860558574271 64 66 63 1.3156638466638257 87 1028 40 740 7 1149
533 -0.72454590889434722 1.7254676608913864 2.4831140907930589 60 60 56 0.5315063546478157 87 1044 40 747 64 940
534 -0.36217647946560277 1.9061268537090825 2.4532808619625728 62 63 59 0.39162701477344597 87 1088 40 768 55 1351
535 0.14138859420493183 2.2052776306640025 2.4889239449482576 0 0 0 1.830663412384653 87 1184 94 784 40 790
536 -0.12439335731578452 0.49516023975156886 2.0951254415984168 255 246 69 0.18057484530506696 87 922 40 814 93 699 24 704
537 -0.53398629865739888 0.57343970468033589 1.9881572611631633 255 234 69 0.57697879943842245 87 929 40 820 26 970 60 984 53 946 64 1145 17 1006 95 653 82 929 5 1038 34 1011 78 996 54 1041 4 1062 43 962 88 894 68 805 32 985
538 -0.97401719503286499 0.99943228916175653 2.5018619667268793 87 105 141 0.21503352865635947 87 1238 94 837 40 860 9 1487
539 -0.88542280506395066 1.1957335434864194 2.1267648928966789 125 130 123 1.6717356392932727 87 986 94 850 40 869
540 0.099114559496120663 1.1882296879617715 1.8988071513975773 83 84 44 1.3668298783971218 87 980 94 703 40 872 55 1214 7 873 26 659 60 655 53 461 46 762 64 808 41 1257 17 1279 95 1216 29 945 88 445 68 329 33 585 48 516 81 558
543 1.5101609651686763 1.5412080627067353 2.8077617373222132 234 219 180 0.50134434767682612 15 813 94 880 40 899 24 842 44 781 32 872 70 745 84 699 42 655
544 1.6598191097167299 1.7961220757763223 4.2916544937398386 237 220 182 0.2739395051588438 87 1016 94 890 40 904
545 1.6598191097167299 1.7961220757763223 4.2916544937398386 237 220 182 0.2739395051588438 87 1015 94 891 40 905
546 0.44385328940622587 1.8033175586575443 2.5720574196264394 224 203 162 0.082676612753445136 87 1051 94 921 40 935
547 0.54010862228495715 1.9162897513746686 2.5153276730011762 231 213 172 0.12375404939832985 87 1085 94 959 40 965
548 1.1215017784895247 2.0360077128453438 2.4365761845014315 234 218 178 0.14806737791118638 87 1127 94 1005 40 1012
549 0.86245767064750622 2.0594539387483737 2.431288817053149 235 219 178 0.064677644066260712 87 1140 94 1014 40 1017
550 0.8611399623445537 2.1863440773955252 2.315413168817507 235 218 178 0.25305036641517537 15 880 40 1055 24 959
551 0.48008273729643292 2.3036451827992122 2.2265119546619658 0 0 0 0.99402294161978011 15 849 40 1064 60 908
552 0.32197899901599247 0.70374851920948678 2.1830271958417069 0 0 0 0.64706785692051305 87 1299 40 1087 46 1443 9 1463
553 1.2650756032390045 1.0144160202130252 1.8453165005415573 44 44 0 0.39481228692700149 15 1045 40 1104 24 1046 93 1030 70 907
554 1.2698023963824403 1.0145903981345066 1.8252482021143033 44 44 0 0.88587911633345595 15 1046 40 1105 24 1047 93 1031 26 924 53 848 70 908
555 -0.97827060479522021 1.1640599524514352 2.6079609058466398 125 129 123 2.6336414950188347 15 498 40 1111 24 530
556 -0.93577832440909015 1.6833268045887337 2.5822902776341587 0 0 0 1.7120387539263116 15 682 40 1136 5 1130 78 1064 88 889 59 1099
557 -0.98535891235591377 1.0802171808911849 2.4966761205237931 0 0 0 1.1451044780109987 87 1333 94 1194 40 1187 91 1247 9 1488
558 -0.92568617388426178 1.4526911195735173 2.6765343069472936 104 113 111 0.7312877000217024 87 1343 40 1201 64 1228 82 951 5 1131 34 1028 78 920 59 1100 21 1115
560 -0.15832303755153726 0.86497464234058574 2.1905956297649087 254 211 61 0.53719209690575453 87 1305 40 1226 24 1187
561 1.1421327511637802 1.1619261640289953 1.7001269828881804 255 226 66 0.60654653828318006 87 1368 40 1234 93 1135
564 -0.69609733158678033 0.40221082774915778 2.036751067174325 0 0 0 0.72929621318147364 15 1095 40 1249 9 1461
565 -0.54783640451528759 0.39338753214585531 2.1648155720256512 226 186 55 2.2277114955073265 15 1115 40 1278 24 1202 44 975 92 1037 84 842 84 843 42 786
567 0.98061846264762553 2.2287656206773674 2.3087717282251585 213 200 165 1.7594758483430724 15 1135 87 1424 40 1303 24 1226 46 1634 17 1566 95 1467 70 1000 42 797 84 859
568 1.2964594363765141 1.1027016421716105 5.0996555859988861 193 108 16 1.0171173383367436 87 155 40 110 94 93
569 0.87187927323570347 1.195509062874669 1.684813707549536 206 112 14 0.072940234229153772 87 156 40 146
570 1.5210175704414859 1.7915327082060371 4.9202920033138424 255 235 73 1.1799448031691819 87 288 94 203 40 235
571 0.79537972635874388 1.2478208633821075 0.92380949016877578 215 125 25 0.078841395696084851 87 575 40 507
572 1.600630713781058 1.8145272866839719 4.8357688755661616 181 128 37 1.1986836262221925 87 841 94 739 40 731
573 1.2181955976896737 1.6230854768230825 1.7536420256657923 236 219 181 0.53742385969186146 87 1021 40 925
574 1.1471390279283944 2.0477546296582543 4.9934763589046751 236 214 170 1.9126908387350052 87 1429 94 1298 40 1306
576 0.0076747488735173647 0.98274943423146122 2.2606789689360229 194 155 44 0.23156439098933901 40 78 24 44 68 309
577 0.38354802784466613 0.93682502516856958 2.3104292931401336 253 190 48 0.025978567746538121 40 72 24 62 94 61
578 -0.29250016624893355 1.2154014379110767 2.1715864358345467 176 185 209 0.061160889786099577 87 175 24 67 93 69
579 1.0183158973001591 0.89904969137042812 1.910358461403082 181 99 11 0.10105082885449714 15 118 24 84 44 133 92 180
