# 3D point list with one line of data per point:
#   POINT3D_ID, X, Y, Z, R, G, B, ERROR, TRACK[] as (IMAGE_ID, POINT2D_IDX)
# Number of points: 373, mean track length: 4.9537576411362823
12254 -0.85320000438850307 0.22684080267210011 3.5405187380806598 254 237 183 0.73892199678113368 33 1376 19 1239 13 814 96 1038 71 794 99 746
12255 -1.4277578309630881 1.1218894484723771 3.1187572981737954 174 159 143 0.29293882226116535 52 1374 19 1242 13 1216
12256 -0.39368206090740704 0.11706174994552658 1.8875650565956557 60 109 54 0.019376316850807363 52 1403 19 1259
12257 -0.256968256457621 0.2896816686456879 2.0201259583953539 84 162 89 0.066123472616246598 52 1406 19 1266
12258 -0.44886357526587317 0.14168221688375052 1.9705327549300462 61 108 52 0.11279876771028501 52 1410 19 1272
12259 -0.42440571639504043 0.16693244197714707 2.0027831256462871 162 167 120 0.52406103289006267 52 1604 19 1273
12260 -0.41154296506304294 0.25250225396453641 2.166290875278452 165 186 132 0.10909576307404609 52 1422 19 1280
12261 -0.34219056953457633 0.31693506135847449 2.2358455940655624 216 221 163 0.071165898413604656 52 1423 19 1283
12262 -0.6987256922880889 0.099463015422339096 2.3253246086790642 247 227 176 0.62506636972359608 52 1205 19 1306 41 1276 9 1072
12263 -0.42038127457364993 0.92962009831264125 2.6134845394318815 206 195 125 0.40217422688907845 52 1458 19 1308 41 1400
12264 -0.49181955088795237 1.2772452346164604 2.5801784088789739 251 254 167 0.046286620877675821 52 1468 19 1309
12265 -0.48062326876930855 1.0772682269565199 2.5878502464682951 255 255 168 0.18297590331392963 52 1466 19 1310 41 1398
12267 -0.53753394676615085 1.0915785373291704 2.911033609527395 87 144 67 0.065290925972203165 39 1177 19 1359
12268 -0.35865460654167791 1.4799726254409102 3.1630511107466601 101 181 82 1.2565017147001012 76 1914 19 1362
12270 -0.79077878031093207 0.41685600698709224 2.7189929990628148 168 166 95 0.11643894121340126 52 1507 19 1366
12271 -1.0687686084530772 0.90907124100916326 2.5931645397793823 76 109 50 0.29909891338528438 52 1524 19 1373 41 1306
12272 -0.80663728077957009 0.23990584534125159 2.8569794106760931 46 80 29 0.5609218852672937 33 1343 19 1384 94 1058 9 1110 96 1270 71 1296 22 1238 56 854 4 682
12273 -1.1259015644739356 0.59845583518237033 2.6605129466609294 180 175 98 0.39280033050665625 52 1536 19 1404 41 1338 9 1216 94 1047 22 681
12274 -0.7925310843758715 0.1451116648726164 2.9652336847931009 76 51 26 0.35702928896578251 52 1321 19 1405
12275 -1.2323210699254739 0.90312740089076304 2.6314238737989801 120 121 65 0.17553971864077322 33 1532 19 1408 9 1093
12276 -1.1232116348242822 0.55998972521308932 2.7267128760027357 140 149 72 0.15216703586094954 52 1542 19 1409 41 1344
12277 -1.1362784650358337 0.58010465085998431 2.7164510350058042 69 125 49 0.35616508308559408 52 1543 19 1410 41 1345 94 1170 13 1316 96 1273 71 1297 22 1239 99 943 4 753 17 603
12278 -1.3028233783782088 0.91213505726743993 2.6439344186762619 170 173 93 0.20785986832948219 52 1554 19 1415 41 1341 9 1098 94 1045
12279 -1.3213771489099695 1.097011425779989 2.6782748543360304 146 157 113 0.90637496026144448 52 1362 19 1418 22 1241 99 835
12280 -1.1934568003712098 0.61544812318058906 2.9235456481371238 87 65 44 1.1522932932120022 76 690 19 1426 41 1354 9 1119 33 1040 94 1178 56 920 38 677
12282 -1.4251661141396672 1.0309158279555035 2.9169133714485906 185 160 125 0.596671186015306 52 1372 19 1435 41 1356 9 1114 94 1067 13 1205 96 1186 99 969
12283 -1.4162424622120893 1.103072120960312 3.1252708749544365 86 63 36 0.31153994535030277 52 1568 19 1438 96 1190 71 1203 22 1000
12284 -1.428106480358057 1.0970651519562131 3.1070092399933444 86 63 36 0.1586797151137195 52 1567 19 1439
12285 -0.25673658760182461 0.29506949246824232 2.0504370334860043 185 204 151 0.28601642625722629 52 1597 19 1466
12286 0.036950125593396471 0.89556258496945307 2.3427210840870858 0 0 0 0.51666559200875994 65 1578 94 949
12287 -0.32351053748017855 0.30859847504636961 2.1642636363081871 182 206 149 0.15765826580642772 52 1606 19 1474
12288 -0.022550408510043626 1.2939452278007002 2.548141067626994 213 203 184 0.6636408063635032 52 1614 19 1478 41 1386
12289 -0.69311068232269246 0.10120869823428758 2.2272878125264208 100 72 42 0.41910000210323117 52 1627 19 1487
12291 -0.4069753350883405 1.143219520808346 2.5940282994629289 253 254 170 0.20067640126459163 52 1752 19 1495 41 1501
12292 -1.0501765304245056 0.55918606518860126 2.1572427850155851 255 255 217 0.42389586836419957 33 1499 19 1503 41 1430 9 1176 94 1120
12293 -0.59970934574427504 1.4011820574503124 2.5856240392419894 117 217 105 0.12815270588474892 52 1768 19 1506
12294 -1.0056313393254235 0.47919046018598355 2.2238190317224324 215 194 150 0.16023587534162706 52 1479 19 1507 41 1435
12295 -0.72543938688802001 1.0329383305525019 2.5716696785609554 200 209 125 0.25445079671205589 52 1652 19 1513
12297 -0.92661230973775455 1.3416985101835168 2.5926700507163241 110 194 89 0.0050147939032914261 52 1669 19 1531
12298 -0.92283109339229741 0.86039907949869898 2.5910701820013404 75 123 59 0.20749995213333863 52 1668 19 1532
12299 -1.0893409131082068 0.95749621666132845 2.5846359258277931 247 237 143 0.30117212196125348 52 1689 19 1546 13 961 96 1128 71 1138 22 1111 99 815
12300 -1.1862304095248082 0.67586821969496769 2.5435583438574301 101 72 47 0.30180031934310614 52 1693 19 1551 41 1465 33 1531 9 1096 94 1152 71 1275 4 637
12301 -1.2160167430055209 0.68634691882851795 2.6815734858962164 52 91 32 0.33478800075327353 52 1549 19 1569 96 1366 71 1437 22 1316 99 999
12302 -0.84302593996909869 0.17350831239408299 3.0914075643859764 189 164 128 0.39747372733619019 52 1544 76 1200 19 1573
12303 -1.3009689755434235 0.8169828959604305 2.8732815480915934 191 166 132 1.1038608493746263 52 1558 19 1576 41 1353 94 1062 96 1290 22 1166 99 959
12304 -1.3914570453797275 0.98157006906580491 2.8319462880715607 96 70 45 0.47473735287657054 52 1716 19 1577 13 1412
12305 0.029599583742183966 0.15942893061335778 1.5840750339840459 252 244 228 1.2460277336112606 52 1809 19 1581 13 1348
12306 -0.89156332915342174 0.29302471742856767 2.2168691108641454 116 123 58 0.60721422086547994 52 1763 19 1645 96 1317 71 1244 22 1272 99 979 56 815 4 780
12308 -1.0555028266614608 0.56462472957370113 2.1911560666257723 93 68 45 0.2090447319268415 52 1773 19 1655 41 1528 9 1178 94 1219
12309 -0.94629897166514731 0.83056452254105262 2.5985889823479673 249 231 143 0.17643948299485948 52 1789 19 1669 41 1537
12311 -0.76041173887836422 0.29999117248235363 2.7718054320904342 79 117 50 0.576766185687554 52 1863 19 1673 41 1621 9 1339 94 1292
12314 -0.77773905300151225 0.10073421067507635 3.1128867301804606 0 0 0 2.4574929425965157 18 1372 19 1689
12315 -1.41029824960725 1.0588466375903225 2.7716984251683647 72 50 28 1.5593662962350692 33 1695 19 1693 22 1248 99 950 94 907
12316 -0.068198655061959088 0.2903075272341521 1.8576787659386371 149 181 126 0.16735155995372591 52 1815 19 1706
12318 -1.2785224536288211 0.76057309452484179 2.8850084492725316 103 79 58 1.3138853679675997 52 1806 19 1756 41 1549 96 1455 22 1417
12319 -1.4530586289110601 1.0870948258083766 3.4079730102519017 198 170 130 1.0570081099063346 33 1775 19 1759 94 1302
12320 -0.28806554713629073 0.151941875838219 1.8071337960917966 73 128 64 0.31298998218210045 52 1942 19 1764
12321 -0.37561764215838944 0.15964109176081751 1.9287611554821651 171 177 129 0.19861514571226807 52 1944 19 1766
12322 -0.55266068397914869 0.094766798878757968 2.147073324072184 66 89 55 0.31891079134573447 52 1898 19 1770 41 1583
12323 -0.79260981291349886 0.24653519965448395 2.1752772337207178 186 223 123 0.42682470564327635 52 1906 19 1773
12326 -0.87481372586206718 1.1984966521432427 2.5680632548980942 98 185 83 0.017219941401710261 52 1929 19 1788
12327 -0.87481372586206718 1.1984966521432427 2.5680632548980942 98 185 83 0.017219941401710261 52 1930 19 1789
12328 -0.84213080267427087 0.54517474251441733 2.6697647855823861 191 177 107 0.33551267409094188 52 1931 19 1792
12329 -0.87229253435581633 0.34607836681973414 2.8197718607123652 134 158 74 1.2379951335013384 52 1932 19 1802 9 1388 36 1099 25 671
12331 -1.4025421544811827 1.0168426884047417 2.8278637604184955 72 49 29 1.5171913071845367 52 1877 19 1806 41 1633 33 1774 9 1343 13 1521 96 1476
12332 -0.40671206432510382 0.068524264410073421 1.8385436653296312 107 128 81 0.35088029888687355 52 1943 19 1807 96 1435 13 1499 71 1447 22 1382
12333 0.034065411123774786 1.1658473988573577 2.236937702104925 159 123 76 0.96842214980791363 52 2003 19 1808 41 1721 9 1427 94 1366 13 1505 96 1463 96 1480 71 1477 71 1501 22 1420
12335 -1.199848540437864 0.68825696098337164 2.5186106370282482 101 73 47 0.88349737709053899 52 1993 19 1837 41 1711
12336 0.26416521623512307 0.34054257046810987 1.7739438633473072 169 169 178 0.16825390395010603 52 2001 19 1847
12337 -0.84515819900746592 0.31290508020044888 3.0897096232284285 0 0 0 0.41807109488328531 52 1996 19 1864
12338 -0.8451581990074637 0.31290508020044938 3.0897096232284307 0 0 0 0.41807109488322769 52 1997 19 1865
12339 -1.2910065570773683 1.2389556145018972 2.8454831502706761 0 0 0 1.0250994663072728 52 2032 19 1867
12340 -0.80171007107110737 0.26905341908204272 2.8256095155421472 99 100 47 1.4232329398074239 52 2030 19 1876 41 1761 96 1512 71 1539 22 1467 99 1117
12341 -1.3862037979702093 0.91547003057185017 2.9310104931565757 0 0 0 1.9161261034971429 52 2040 19 1878 41 1746 96 1514 71 1542 22 1463
12342 -1.2891798490514967 0.79068123007911428 2.8002343616964676 186 161 127 1.5480872063960811 33 1962 19 1894 41 1765 9 1458 94 1406
12343 -1.0274874586281602 0.94046994570911335 2.7846578278841081 180 159 94 0.38154064028252616 52 2052 19 1896
12344 0.22731217644115798 0.85354985150112939 2.6936657495595298 0 0 0 1.2965419574945107 52 2051 41 1770
12345 -0.32662489850750387 0.053582816269884426 1.7805376801062871 47 93 49 0.20177495898400863 49 1364 52 1101 19 600 77 903 63 845 55 886 43 867 82 924 61 890 76 826
12346 -0.51890373191261574 0.1095079741187174 2.073547562649837 51 99 50 0.25363086905734317 53 782 52 743 19 673 60 202 79 880 26 168 20 137 96 533 71 523 22 508 99 373
12349 -0.88035417794939619 0.51535788778074498 2.6755787636002109 74 114 52 0.42555011421893169 8 1237 33 1323 19 1161 16 1301 54 1438 95 1372 34 1543 98 956 41 1099 52 958 9 1091 78 743 2 1212 51 778
12350 -1.1573272603372591 1.2258879367505886 2.6194979407603101 209 215 112 1.5822888387384137 43 2033 52 1535 19 1388 77 2384 59 2389 37 2300 100 2133 76 2128 85 2015 79 2045 60 1945 7 1649 53 1822 18 1587 43 2358 96 1139
12351 0.058580477650777035 0.97707792162513951 2.2356567728164731 49 85 33 0.4324980901361451 93 848 18 785 19 1033 49 834 76 902 65 806 53 204 96 543 13 536
12352 -0.46725755373136457 0.053032348344680402 1.8926037507497493 49 99 52 0.31611283772888188 82 957 43 931 33 788 19 1030 61 1523 53 754 52 1127 76 1400 60 1364
12353 -0.29665963884082774 0.28059971738960299 2.0415529276672966 132 166 110 1.8956308382499656 49 2316 55 2405 43 2491 76 2450 52 1946 19 1768 74 2306 34 2423 77 2608 82 2633 61 2675
12354 -1.4752053578586437 1.1428930105671291 3.4119811802395765 235 236 228 1.2362404888731038 49 2375 43 2554 61 2744 76 2507 33 1956 19 1884 77 2742 59 2624 37 2639 100 2502 82 2710 85 2583 60 2515 79 2419 26 2380 20 2273 20 2287 27 2121 7 2013 64 2276 65 2262 53 2185 93 2153 18 2099 80 1756 75 1675 52 2041 41 1753 9 1454 94 1400 69 1315 13 1575 96 1518 71 1546 71 1555 22 1473 99 1122 56 1041 4 950 38 830 25 726 36 1212 17 786 81 713 90 765 29 797 73 678 14 609 23 563
12355 -0.43109195232445413 0.10579888353179975 1.902606824170104 56 102 49 0.13754755568018964 52 695 19 630
12356 -0.4371616695023175 0.23240756545790475 2.1352699720603359 74 136 70 0.039768005878010576 52 742 19 674
12357 -0.57593136271925749 1.1916028235680505 3.2862132671947797 197 171 101 0.10373578879488365 76 1241 19 918
12358 -1.0556611107290359 0.49625452674150605 2.7369842875255861 180 168 88 0.14884506192429817 52 1014 19 922 41 877 9 712 94 903 56 629 4 550 38 489 25 317 17 448 81 373 90 431 29 328
12359 -1.3400188909880577 0.96887463264142315 2.709352376087601 60 103 40 0.35931227003228727 52 1045 19 963 13 1008 96 1002 71 989 22 722 99 532 56 177
12361 -1.1189161274728172 0.5478663583851473 2.949681121884614 219 195 151 0.38573746954732868 33 1036 41 1163
12363 0.15474681477382385 0.34644217450598391 2.1595169300351844 95 170 93 0.011649272457628396 61 124 41 71
12364 0.1815780953206238 0.67333330136871516 2.2814248992273778 103 94 79 0.14466652389663018 33 66 41 80 9 40
12365 0.033051205586579258 1.0539873263500052 2.2720073866588137 90 77 40 0.27366547895232651 79 290 41 86 94 22
12366 -0.13100122749373805 1.3186784739998456 2.6583933210917188 149 127 94 0.23043691553064896 52 251 41 136
12367 -0.50203174994871169 0.11208897856919171 2.0309935218885409 68 118 59 0.052527709550632413 33 249 41 150
12368 -0.50587963465882058 0.12225074289225724 2.050412896374525 64 117 58 0.21652594512490358 33 255 41 156
12369 -0.15854841037309644 0.98042521159586871 2.6823885767018352 75 126 63 0.16815517280346826 33 748 41 166
12371 -0.20957276633154914 0.9527393232945196 2.6695656346617085 65 115 58 0.88976849458610263 33 767 41 175 9 510 57 389 6 373
12374 -0.32479344094308549 0.064781967802878399 1.7840285285464883 0 0 0 0.18436149556349846 19 602 35 862
12383 -1.0537897080681997 1.140592095851521 2.3061503589908665 114 191 88 2.1757001988576459 59 591 41 283
12384 -0.84480713108494387 0.20936053599640173 2.2353357657845576 209 194 159 1.1610963793885005 52 320 41 300 9 868
12390 -1.048951096003647 1.2654850961752284 2.5905157775738585 216 223 146 0.11696647778074953 33 924 41 354
12391 -0.94731129126378066 1.5513344500305506 2.8628069406046759 1 1 1 2.4726833757818336 33 428 41 360 88 224
12397 -1.0612273127552481 1.0059605197459238 2.5764945886434765 75 127 55 0.21935155139377885 33 511 63 1193 77 684 41 383
12398 -1.0618118483263033 1.0058388116269255 2.5759147302864549 75 127 55 0.20393617079753235 77 683 41 384
12400 -1.0204870780477098 0.8334480774443439 2.597769604887755 56 74 35 0.0096901194237595592 33 524 41 393
12405 -1.007618572499335 0.53354169402890994 2.6746376855107301 57 89 36 0.2389300970516281 19 419 41 434 9 340 94 296 36 309
12406 -1.0245722357595581 0.53144044859684447 2.6772508135500601 79 101 48 0.10382903182173382 19 425 41 444 94 300
12408 -0.83020751809594673 0.28200733334551487 2.8139790799287803 72 138 55 0.24541675060250928 52 482 41 447 96 317 71 299 22 307 56 449 38 213 81 166 90 160 73 112
12409 -1.2787900726230044 1.0615430795824721 2.6199153097725483 176 193 110 0.081647339944497188 52 569 41 450
12412 -0.93011497129397513 0.36958859390539456 2.8150009430707477 76 135 53 0.42138330846787664 19 447 41 473 9 372 94 680 22 709 71 321 56 645 4 564
12413 -1.1112532308259013 0.56256807339418669 2.7000827673427383 148 148 75 0.18630919447384559 52 540 41 480 94 665 19 475 71 305 13 276 56 167
12414 -1.2055077898254103 0.65999269465534893 2.6261638899023625 202 179 141 0.54662174743974101 19 476 41 483 13 680 96 316 22 688 99 493
12415 -0.85179584699352762 0.19367533812039853 2.9064670389807961 254 237 184 1.1035159266402881 33 571 41 491 9 405
12416 -1.0098279211604499 0.4329990390298798 2.8541400106674617 209 195 157 1.0135023712886337 19 490 41 492 9 394 94 347
12417 -1.3341551255690232 0.95688080973720513 2.6882828917239485 72 116 47 0.20918238535835054 19 519 52 594 41 493 94 321 13 341 96 386 71 361 22 718
12418 -1.0387785292457292 0.46424731785326734 2.9152934540161968 208 183 141 0.14298397442224844 19 513 41 505 9 408
12419 -0.86465316545166604 0.22807065707133051 3.5413030955315876 242 219 170 0.266612261568759 33 629 41 531 9 435 56 300
12420 -0.86465316545166604 0.22807065707133051 3.5413030955315876 242 219 170 0.266612261568759 33 630 41 532 9 436 56 299
12421 -1.4662605454701585 1.1385399716408657 3.3549827103470369 174 151 123 0.13061378172315652 19 987 52 1074 41 534
12422 -0.42098527167313116 0.17382137397003544 2.0027038421638235 159 176 124 0.23329426926394162 19 653 41 603
12423 -0.31694791229521879 0.74838560125104703 2.6755361874622925 152 158 100 0.12509100187374569 52 303 41 666
12425 -0.76461033051396132 1.1623179235035861 2.5581956135018586 255 239 157 0.21703647275756305 33 874 41 707
12426 -0.88418576843386099 0.33392020985142201 2.1538155469835347 66 107 47 0.24174921039682837 19 225 41 720 9 591 94 507
12427 -0.88264788003549621 0.33487361285232708 2.1556085835893839 66 107 47 0.23125199687758072 52 832 41 721 9 592
12428 -0.83365684523059169 0.24498142265737183 2.1828514928298159 54 79 33 0.25520787896487895 52 304 41 726 9 209 94 515 19 741
12433 -0.90223275217799292 0.30702828010438121 2.2408970400067072 208 193 156 0.3828355727767136 19 253 41 757 9 627 94 175 4 38 56 41 17 22
12434 -0.84737735735255582 0.94126230242766229 2.5711217012037868 250 234 151 0.0063484258468623905 34 1167 41 761
12438 -0.7262524197090181 0.57240672320960462 2.6670247707689096 71 113 50 0.2422849017413799 19 826 41 789
12440 -0.94180240012278826 0.88145319475269901 2.5764847243635618 75 123 54 0.085094105921321522 52 948 41 798
12441 -0.79337002750997843 0.59072896996443736 2.652015371801598 72 113 49 0.19748391843678501 19 355 41 802 9 646
12442 -0.97380908591056059 0.87675795036155157 2.5835434072616441 77 119 52 0.099123210836474573 12 196 41 811
12445 -0.11950246915645572 0.6707546716638072 3.5588154582446543 110 121 63 1.0139606575787914 49 1023 41 822
12452 -0.7481802756764957 0.27772077068578527 2.7813682174596019 155 132 74 0.30604656933869506 33 977 41 846 9 694 94 651
12454 -0.84575803349444501 0.32159710849623147 2.7416715076056359 164 158 93 0.26065578936538103 52 965 41 853 9 702 4 376 38 371
12456 -0.78555131678318224 0.1567576881584109 2.8148940901964963 98 75 52 0.5881818455586133 33 546 41 861 9 376 94 668 96 314 71 689 13 681 22 301 99 195 56 456 4 211 38 611 81 491 14 275
12457 -1.2060253712174731 0.68916023180198227 2.579975606383146 72 49 23 0.38322115968918713 19 916 41 873 9 687 94 878 96 961 71 934 22 923 22 1124 99 820 56 585
12458 -1.0556906553402641 0.49559745055406168 2.7367272187168292 170 158 83 0.19474769772867284 19 921 41 876 9 711 94 902 96 989 13 985 71 963 22 953 99 697 56 628 4 551 38 488 25 316 17 449 81 372 90 430 29 329
12459 -0.78068327643070257 0.12118678475851211 3.0702212232914463 76 52 28 0.78069758083801177 33 584 41 891 94 715
12461 0.0088759332193110441 1.1571187164398198 2.2174485493844749 133 102 68 0.30689624766264645 52 1124 41 925 94 419
12463 -0.0039978954987684168 1.2790423062270919 2.5340008878506222 201 189 170 0.09638127501800714 19 682 41 942 9 465
12464 -0.019412526795642232 1.285381089932297 2.5587884908094023 255 255 241 0.58812365164467639 19 688 41 945 94 40
12465 -0.10741992865337247 1.3877087781467712 2.6932867635835973 98 82 55 0.42209103691291122 33 1404 41 956 94 46
12466 -0.07343972785123562 0.89322117504478082 2.731607016596735 80 135 71 0.092850626567340153 33 1423 41 977
12467 -0.55867007071447872 1.4037546756886143 2.5922802097968893 243 243 163 0.18046929701765813 75 1201 41 996
12471 -0.065121604292520355 0.26484033968931192 1.8214676382343589 0 0 0 0.30087512161945296 7 1072 82 1940
12472 -1.4628894494472684 -0.44856359394776812 4.1796173905829885 0 0 0 0.61730712948951161 64 1397 80 1114
12478 -0.27794124160432576 0.31311097865394505 2.120914638346171 0 0 0 0.035854734080513991 26 1379 93 1247
12479 -0.98869180280466207 0.88091174053427435 2.5829069766977151 223 205 121 0.26952376162809794 16 1394 41 1077 50 795 44 893
12482 -1.0861068735092079 0.93374859310033897 2.589912776473128 63 100 44 0.14852445237984979 52 1313 41 1092
12483 -0.31913972122328982 0.26000918331739598 2.0384140087260207 0 0 0 0.005673147328238988 53 1231 79 1354
12487 -1.013049049353524 0.47962760888158662 2.6749570455203462 182 174 100 0.18386846821320355 52 1315 41 1129 9 944
12488 -1.0083733920794322 0.48097345653254608 2.6821202632688106 182 174 100 0.7201536403341694 52 1314 41 1130 9 945 94 885
12489 -0.87284080808336739 0.31547146685027205 2.821695636404054 162 153 79 0.29855739011641724 19 1198 41 1138 9 960 94 904 13 699 96 987 71 962 22 951 99 701 56 640 4 566 38 389 17 321 81 287 90 316 29 364 73 277
12490 -0.74558058065796651 0.13231184976245752 3.038182879080273 255 255 213 0.65048506998907063 19 1214 41 1149
12491 -0.93104421974840634 0.41887488785613158 3.0014855825262838 250 229 176 0.27875393423236117 52 1344 41 1152
12492 -0.84362822487281885 0.15177751089921171 3.1032972332344575 94 67 40 0.59482350113863858 33 1026 41 1162 9 983 94 1070
12493 -1.4143718724347247 1.0204818910002407 2.8826552037966384 97 66 33 0.29422273858393805 52 1371 41 1173 94 914 13 1203 19 1433 96 1184 71 1198 22 1257 99 865
12496 0.054979476132713201 1.080693152612338 2.2303996996892184 150 113 78 0.54060079471963751 33 1558 41 1199 94 739
12497 -0.32498533101669536 0.095563384952572314 1.8019540697326941 148 151 106 0.20408040876579059 49 1912 41 1206
12498 -0.097757312418774417 1.0367104668224774 2.6929255848148528 194 194 129 0.49475575458767429 33 1415 41 1226 94 764 57 686
12499 -0.32500820641766304 0.78197853717642485 2.6697562087528497 204 189 124 0.084188450511210211 33 1608 41 1245 9 1153
12500 -0.53319399186026728 1.0640655761834059 2.5787814624513565 88 156 73 0.011722266203766879 33 1446 41 1248
12503 -0.93001123674326447 1.3401593035646224 2.589622275517828 108 192 88 0.2753441572666851 33 1644 64 1883 41 1279
12505 -1.0478739550226528 1.2660256542299366 2.6053861346290628 182 209 124 0.058093600270266013 19 1369 41 1288
12506 -0.77536992711814112 0.33105249297546618 2.7566864700700906 149 133 76 0.20356582592704844 19 1159 33 1510 41 1314 9 1097 36 948
12507 -0.91658325055540146 0.47107610152178403 2.6938343172193928 56 99 38 0.40119017899141324 19 1173 52 1517 41 1318 36 932
12508 -0.87745680782616642 0.36769117683568031 2.7287130801195616 198 187 108 0.45424741447851275 33 1517 41 1324 9 1101 94 883 94 1038
12509 -0.98064327891766712 0.42476644814874565 2.7600225831807137 80 141 56 0.47934162284228471 19 1398 41 1337 9 1104 94 1165 13 1154 96 1264 71 1290 22 1236 56 846 4 759 38 669 17 541 90 603 29 554
12510 -1.2610026611286831 0.78008463341279255 2.6679203928631856 79 59 39 1.1898975104350191 65 1464 41 1347 9 953 94 1054 22 1314 96 1365 99 998 56 619
12511 -1.259410883479281 0.78360797533426385 2.6739221654834249 79 59 39 0.46880098489661692 65 1465 41 1348 9 954 94 1055 4 653
12512 -0.89191782406177511 0.2034100876081959 3.5572406333739712 255 255 218 0.54427450282671075 19 1437 41 1360 9 1128 94 1075 22 1178 56 802
12513 -0.99541957441520457 0.52194493743873971 2.1566837464970896 164 126 91 0.20512337099966238 52 1637 41 1423
12515 -1.0447839939568149 0.59047492216440867 2.6646330608838618 185 163 98 0.4653235989036193 19 1548 41 1464 9 1210
12516 -1.0523270198621855 0.56142273344714189 2.6661172390484658 52 86 35 0.87163704993237756 19 1550 33 1684 41 1466 9 1211 94 1035 36 1017 22 1127 4 522 56 411 38 575 25 509
12517 -1.0567486314532577 0.56152317845553723 2.6645577453467788 52 86 35 0.20898509720588837 33 1683 41 1467 94 1036 19 1549
12519 0.032301110744024003 0.76153691956783309 2.7954094820225039 0 0 0 0.66765618045173736 33 1795 52 1623
12521 -0.58177114106608385 1.0502828205449655 2.5635446328165536 196 204 130 0.39624244949194154 33 1809 41 1511
12522 -0.73734945764501791 1.0512805376457368 2.559735844819329 211 209 132 0.78576932009236555 19 1514 55 2283 41 1516
12524 -0.75601272460366387 0.15220859008973231 2.2267791017588121 255 255 216 0.60897782640789577 33 1742 41 1519 9 1264 94 1218 36 1086 25 619 38 687 81 574 4 714 14 474 23 435 1 510
12525 -0.92050903301342379 0.34999327072700631 2.2142657684870306 81 113 47 0.74344859483019687 52 1764 41 1524 9 1266
12526 -0.93549858006492492 1.156704790220451 2.5612521220845741 205 213 132 0.92381156811487819 43 2353 41 1527
12527 -0.06427099009836458 0.054775775118490355 1.5543775875728947 120 83 49 1.0984136849840018 20 1863 41 1556
12528 -0.30879698171747016 1.1823238274534689 2.6170443259973459 169 213 118 0.20545088171844231 52 1841 41 1571 94 1199
12529 -0.33065630722420525 1.251384063320758 2.6136049261301997 165 218 118 1.053012785344124 33 1847 41 1572 9 1307
12530 -0.19437085935247517 0.63877903931357705 2.7425314750565986 63 126 67 0.46047852441376408 33 1854 41 1592
12531 -0.63477470676872882 1.3048262520256586 2.5772776869740674 168 209 118 0.68511484621888774 52 1920 41 1596 94 1210
12532 -0.99365670541150752 0.55766608143646368 2.6611299507329749 175 157 94 0.62274070203229315 19 1681 33 1822 41 1622
12533 -1.2287556547340572 0.86890518643601145 2.6479110709803897 38 78 30 0.22798642768913938 19 1749 41 1626 94 1240
12534 0.25888734873292069 0.33502396285920855 1.7442122051498066 178 177 180 1.1511772845881689 41 1637 49 2362
12535 0.084362431298559915 0.69919727766858653 2.8503176455314971 190 198 130 0.44175394061932227 33 1887 41 1646
12536 -0.36332247709108911 1.6635193425609676 2.7932880273975256 0 0 0 0.37561505242831511 19 1815 33 1890
12537 -1.144488869919239 0.67560615312765238 2.5024970205506296 108 84 60 0.45139483746367959 33 1872 41 1679 9 1333 94 1286
12539 0.030887198921634579 1.1756759369382186 2.7398929014575395 163 206 113 0.36930487656765276 52 1902 41 1690 9 1394 94 1307
12540 -0.16090243538986682 1.4439940957457456 2.7005736265015305 229 241 164 0.86765844793897695 52 1948 41 1691 94 1348
12541 -0.88539839167020817 0.45961074007216707 2.7012682542036646 62 104 42 0.2797618694889249 19 1798 41 1707 9 1415 94 1333
12542 -1.3535815049933901 1.1076838850750312 2.7851215499367852 201 179 159 0.82330782683836912 33 1913 41 1717 94 1363
12543 -1.4415717971468747 1.1810839298871418 3.3104855983482433 1 0 1 1.0864928067176565 33 1879 41 1719 9 1423
12544 0.030966802696693191 1.1641348605305097 2.2355799916625063 165 126 74 1.0746448297238225 52 2004 41 1722 94 1367 96 1481 71 1502 22 1421
12545 -0.034584272323139667 1.1204643561099286 2.5913942893622548 0 0 0 0.47609459765232187 19 1872 94 1369
12546 -1.3191724460670879 0.86036036439363928 2.853395383895005 187 163 130 1.0834110510422916 52 2024 41 1745 94 1382 22 1469
12547 -1.3678984117824278 0.93018732559826056 2.9418223229571496 0 0 0 1.6754718251687328 41 1747 94 1384
12548 -1.4310533818143787 1.1922910728755618 3.3333014455259642 0 0 0 0.86709004011871527 19 1868 41 1748 13 1546 71 1517
12549 0.2336993578397546 0.30751247244298663 1.7522953734797837 188 184 191 0.14838224882128204 33 1964 41 1749
12550 0.32925418122607031 0.64077120682009614 2.2304717281117803 0 0 0 1.4372618640148225 33 1965 41 1756 22 1453
12551 -0.46686211858950105 0.052956955165457259 1.892536778869353 49 103 54 0.36468131480089427 82 958 61 1522 76 1399 79 839 93 1216 53 753 18 1165 52 1126 19 1029 26 98 27 77 60 1363 65 1192 41 601 49 944 55 957 33 789
12552 -0.55245581736111349 0.11455355970886807 2.1744775136027314 41 83 43 0.36236047385669584 79 224 93 208 18 781 65 823 52 759 19 693 41 657 82 245 85 234 43 998 49 1019 33 851 13 530 96 552 22 525
12553 -0.72888800897798789 1.2764186074819182 2.5655385202508052 91 151 72 0.77447526263182098 49 2339 55 2442 33 1903 41 1661 52 1925 19 1783
12554 -0.88021590168293651 0.82890653271868564 2.5909324898239428 106 124 69 0.300102753794525 33 1493 52 1266 41 1287 49 1842 63 1830 43 1983 62 1588
12555 -1.1314703754521123 0.63977167539035185 2.4779730219944582 225 201 157 0.63558832616141092 76 2099 52 1685 19 1676 41 1458 49 1875 63 662 43 2013 61 2112 33 1679 9 1086 94 1146 56 723 4 628 38 562 25 493 1 323
12556 -0.5106853998813512 0.10624544463716643 2.0500427478545538 60 114 57 0.22730330507905006 82 219 43 237 33 259 41 160 18 127 52 191
12557 -0.36803702994877685 1.5250999976765096 2.6385958434117258 176 201 123 1.323656035081878 52 1754 19 1493 41 1498 49 2234 63 2253 55 2378 43 2398 61 2636 76 2352 33 1800
12558 0.1014014750939996 1.0688321570750627 2.2336231821536989 232 232 232 0.8722421156228104 19 1027 79 1956 16 2105 95 2229 2 2015 62 2001 54 1849 34 2359 77 2518 59 2471 37 2475 63 2203 82 2399 55 2249 85 2364 43 2221 61 2243 76 1776 8 1699 31 1625 33 1701 49 2067 41 1196 44 1374 9 1227 94 1187 30 1147 50 1171 70 893 87 326 84 522
12559 -0.52655207442016527 0.091478895742074476 2.0757499129313657 46 96 51 0.29307853110431659 49 341 55 282 43 970 33 283 41 171 76 926 93 819 18 754 52 744 65 177 19 675 94 52 9 125 96 534 71 524 22 510
12560 -1.0658162511009763 0.85142435775091352 2.602593072993773 73 127 55 0.71309800335009588 52 2015 19 1834 41 1705 77 2708 63 2328 82 2681 49 2356 55 2457 43 2535 61 2718 76 2476 33 1944
12561 -1.2375750347169143 0.7276676554517908 2.6634441075222353 187 164 131 0.47276922125697246 52 1937 19 1803 41 1681 33 1829 94 1337 96 1473 13 1512 71 1489 22 1433 99 1079
12562 -1.0210369512203752 0.9212274712184384 2.5869039682418746 194 194 110 0.82156536537714042 76 2431 52 1982 19 1796 41 1674 16 2100 95 2225 2 2003 62 1992 74 2317 34 2405 35 2407 77 2637 12 1888 63 2224 55 2394 49 2301 83 1839 78 1283 30 1171
12563 -0.99252330090559115 0.49333376413249719 2.1702178656612543 255 255 222 0.54074798907754607 52 1766 19 1647 41 1608 61 2046 76 2197 33 1751 9 1330 94 1272 36 1070 25 612 81 518 38 686 90 566 1 465
12564 -0.83316889983308728 0.27680157709718334 2.8427661630658245 141 150 72 0.39817600124393926 52 1792 19 1683 41 1548 43 1972 33 1678 9 1219 94 1171 96 1268 22 1237 99 946 56 852 4 760 38 608 81 408 17 551 90 614 29 565 73 459
12565 -1.1173765673988458 1.0239420013408571 2.5801294527231948 172 192 102 0.62897520666434248 2 1903 16 1994 74 2203 34 2291 77 2470 59 2372 63 2116 82 2455 55 2231 43 2302 41 1538 54 1728 33 1762
12567 -1.1983237214440827 0.88285001044435818 2.6293453508078488 177 153 89 0.27802980971613761 19 466 41 445 94 283
12568 -0.42058459104278595 0.85659523780593438 2.6316695043644778 66 108 55 0.08899493592196267 33 1445 41 1001
12569 -1.1033933542694461 1.0788746685194648 2.577571713373024 95 165 72 0.021690525789082898 19 1175 41 1083
12572 -0.16537499338435041 1.4407535378415626 2.6824656977397359 216 206 147 0.078919749385201909 54 949 44 20
12574 -0.79966592542904524 1.512424037342222 2.6221876805279756 57 95 39 0.2855937599248714 31 10 44 28 51 30
12575 -0.81446774371946584 1.503388176919247 2.6189593757874761 57 96 42 0.21342436510483448 8 19 44 29 9 142 51 26 50 31
12576 -0.57048910758755711 1.4349666176588676 2.6004620097149282 226 224 150 0.54052917031895176 74 1271 44 31
12577 -0.69024807075658146 1.3073154854921474 2.568441468162995 111 186 88 0.1430926269555311 54 209 44 57 30 28 78 82
12578 -0.42225151456174159 1.1931934225256868 2.5918431031950373 79 135 59 0.026604372566858072 83 423 44 66 31 149
12583 -0.45600043238977567 0.91334632097711499 2.6141902956217966 162 152 102 0.39776149018604973 49 392 82 479 50 523
12585 -0.62014291143555056 1.1014936198574856 2.565434036376304 240 223 143 0.18849854718573456 59 559 82 577 44 107
12587 -0.99362650175626954 1.1244389031342612 2.5668980191476081 112 186 86 0.14352258421087233 34 600 44 127
12589 -0.56868833214355274 1.0169832687771596 2.5807670312973952 62 102 51 0.016439459309636702 95 533 44 139
12591 -0.44777379502965514 0.98876580752738952 2.6027079463204514 66 95 49 0.095417339290387079 34 507 63 398 44 144
12592 -0.70325543226662846 0.99217686301991004 2.5718396899532223 247 234 149 0.1064669139818933 34 518 44 151 51 88 70 75
12593 -0.63591340075908653 0.97670204004172723 2.5744137970244769 56 96 49 0.10428334740818435 95 505 44 153
12595 -0.61754541600773649 0.95613769498972434 2.5777958642059811 67 109 53 0.070849798463622202 62 390 44 159
12596 -0.28309913955610655 0.90539620830516743 2.6546546729820197 43 72 37 0.12473161324766507 8 228 44 160 70 142
12597 -0.55894910417962484 0.89360671431358607 2.5934750243388134 50 86 43 0.2078452201130695 8 229 44 167 50 160 36 144
12602 -0.38288432994169203 1.4780184646364403 2.6219677618515909 0 0 0 0.18161403716250524 35 759 64 568
12605 -0.49470365696611929 0.056695198658352222 1.9399351585368521 0 0 0 0.14747725958556351 53 107 65 130
12607 -0.54246288742841919 0.83485901547418351 2.6064195590716799 153 146 93 0.15767594913313523 63 422 44 192
12610 -0.46384251689154588 0.65293570601239259 2.2425574547829643 78 90 50 2.7763830224698189 20 240 44 195
12611 -0.3856831925583058 0.80451287607296584 2.6506645476402304 61 81 44 0.038719965184394231 8 295 44 197
12615 -0.49147715639759421 0.78532164870892318 2.6265963739862461 193 174 113 0.13313366565850163 16 360 44 207 2 351
12621 -0.091449721718869462 0.72605477980322963 2.750774350959305 158 150 98 0.15849127892862713 54 494 44 223
12626 -0.94002599605624315 0.76478509420759833 2.6069477406803307 66 104 51 0.14063943741317919 49 633 44 260
12627 -0.59534627877799162 0.75990106122886814 3.4145138096736467 0 0 0 0.023902638280112326 31 358 85 586
12629 -0.44581257770174121 0.64823903980675512 2.673358837186826 74 96 48 0.020271064515019161 8 375 44 274
12641 -0.96220496922814336 1.1663563112021136 2.568063968080291 0 0 0 0.12872536981523319 76 623 82 733
12644 0.10934253943930825 0.52162685605517223 2.2705560913530252 0 0 0 0.075015236086365678 64 252 75 156
12647 -0.70971542824078093 0.5141526605896285 2.6807389669830557 190 167 103 0.1620110545339411 31 349 44 361
12648 -1.0358135597761227 1.0873195849060884 2.5703400397491141 0 0 0 0.22968434780097818 2 407 85 577
12654 -0.68809081507264036 0.38898393795101405 2.7238359881022545 67 92 43 0.095785131530919582 54 176 44 403
12655 -0.46841203629100814 1.4324698375101765 2.6046389262630973 121 197 96 0.12843014875704595 98 715 44 455
12656 -0.31559333462385919 1.2791222674534668 2.6160945839363516 82 142 63 0.11772486928817133 49 988 44 474
12657 -0.35750991486698308 1.2759307560622206 2.6058664300145837 132 156 89 0.18761096566757138 39 712 44 476
12658 -0.18278281711851307 1.2427225866748666 2.6530478821002856 91 162 72 0.11205565119210792 8 1032 44 480 50 442
12659 -0.18278281711851307 1.2427225866748666 2.6530478821002856 91 162 72 0.11205565119210792 8 1031 44 481 50 443
12660 -0.17616027168482803 1.2223113656119367 2.654394994386549 208 197 120 0.19654783095165182 8 687 44 484 30 459 50 71 70 362
12664 -0.043349808833352182 1.1905076525550256 2.7088688861088377 61 88 41 0.12761874817939953 55 956 44 491 50 84
12666 -1.1902152367549168 1.1030131446519527 2.5953165848162691 0 0 0 0.029616842240288446 41 842 52 1015
12667 -0.41600454791213226 1.1146052736755432 2.5974272123132622 63 108 49 0.031115155972605911 34 1209 44 523
12668 0.1664703040737377 0.76284837549094076 2.2447027846716616 250 235 135 0.16235870666999991 8 788 44 532 30 540 50 474 70 414
12670 -0.040834663146113725 0.98295467088410293 2.7228359368382811 191 175 116 0.16796913141012479 39 723 62 1036 44 543 88 633 5 425 15 325 32 333 45 369 42 242 92 110 6 164 72 224 89 216
12672 -0.59188069711708025 1.0145807118674128 2.5753645907458145 63 106 52 0.027953399440528159 74 1151 44 546
12673 -0.49493547619469069 0.96989483290411715 2.5907146652283313 214 201 127 0.29564855594738459 83 328 44 550 51 541 12 893 77 1234
12674 -0.44529339602118245 0.11708884935143514 1.9499031411431897 0 0 0 0.22720859882455463 19 645 52 712
12679 -1.0853852020040902 1.0274931549278989 2.5747933887045953 104 173 79 0.095101807343315789 33 1314 44 567 50 503
12684 -0.36137945579343433 0.33369388267425826 2.3469483149975132 0 0 0 0.096430390163692065 20 895 79 288
12687 -0.43952668428746838 0.54205678289827453 2.6965928211561638 175 159 97 0.10786235948293581 54 810 44 673
12689 -0.7928814007790661 0.25424639900416107 2.1776561691651177 80 110 56 0.16921615596250991 31 800 33 401 44 711 30 554 50 636 70 427
12690 -0.13327201691731572 1.5135869888592113 2.6994747558009018 173 218 127 0.50161336987445726 63 1728 44 745 50 706
12691 -0.56053262066450094 1.3986060508280715 2.5909591399856979 224 219 145 0.06701637995692275 8 1325 44 770
12694 -0.92760571442052053 1.2066594097119347 2.5683686345418866 222 214 137 0.20365108715503152 8 1037 44 805
12695 0.18925198018756412 0.74229952201009541 2.24673672973167 84 109 53 0.077574584464656038 31 1156 44 816 50 477 70 619
12697 -0.11141473463745877 0.97783076233484512 2.6982413434318739 182 170 111 0.096954789761040883 31 1096 44 824 88 815
12698 -0.62574577903800255 1.0208182348218875 2.570836035412793 176 171 109 0.044350814380007431 54 1181 44 827
12701 -0.4852346912761985 0.85551222431903706 2.6110941266779166 47 74 39 0.096140451533885993 8 1132 44 870 30 714
12703 -0.77448992354356738 0.81447281012069195 2.5963196904684391 60 101 48 0.059544199150069227 33 901 44 902
12704 -0.77542005116488744 0.81607201654557671 2.5989577841575033 60 101 48 0.14678378945185025 8 1146 44 903
12705 -0.54676864843126594 0.72758418536053115 2.63184164588696 53 87 39 0.083319046710113254 43 1585 49 1494 44 915 30 735
12706 -0.25733208830485838 0.26233879809719773 1.9655100543892112 0 0 0 0.067213539326128835 37 1461 85 1420
12707 -0.1826518907789812 -0.066406756735055028 2.3833940313783355 0 0 0 1.1758862713605933 27 1248 37 1462
12709 -0.35322082397358029 1.1437300091985061 3.0947907891593798 0 0 0 0.97642783490238894 65 1416 83 1314
12710 -0.94474573961394248 1.2110894247244488 2.5742581494170733 0 0 0 0.09679863481854542 49 1608 74 1632
12711 -0.45789739791509737 0.56042156405579902 2.6932751762176133 184 164 100 0.10489899026850678 8 1226 44 949
12712 -0.78227646501094594 1.1673448226468375 2.5618017077634119 0 0 0 0.13195393411583572 16 1466 37 1729
12713 -0.67330653664570406 0.58020230800696515 2.6654157271386878 176 156 96 0.22241824199714033 34 1552 55 1604 44 953 50 861
12716 -0.49315736186614267 0.49481485424578364 2.718430887216539 56 85 38 0.28815503523030866 33 1232 44 974
12717 -0.83869005798066287 0.36438477000740271 2.1562130589023316 71 125 56 0.11777146980669509 55 1624 44 975
12720 0.21192412841920261 0.79999457728011203 2.2314594523050029 191 232 144 1.0097207370006402 55 1772 44 1041 61 1536 50 924
12721 -0.77839429997267229 1.1309181147316614 2.5591043361914085 222 211 134 0.50958236821985192 31 1237 44 1044 36 874
12724 -0.25072943282820948 0.39342601814564487 2.3571360399853876 0 0 0 0.063315213317310173 27 1267 93 1278
12725 -0.79802925443144934 1.0918339113429665 2.5624442320869214 0 0 0 0.41334764522962086 59 2080 63 1827
12727 -0.54136356062696445 0.60445264243297325 2.6735203826368643 49 82 36 0.58470403419938499 95 1733 44 1112
12730 -0.8054767388736721 0.50166269932483643 2.6800567045883792 50 87 38 0.06971072595093103 55 1635 44 1131
12731 -0.090529837277464636 1.2818058319888552 2.6175875230371206 160 136 103 0.55977096625838152 8 1496 44 1156 30 988
12735 -0.99482914894940389 1.1820129247916775 2.5787174019359762 0 0 0 0.31511799589596495 76 2235 85 2317
12736 -0.80956908191084631 0.53783035502566312 2.6747868187684323 184 161 94 0.029713913684559508 55 2218 44 1314
12738 -0.82176705796775851 1.0704126097467423 2.5642239671149296 88 160 72 1.6828461221473028 31 1617 44 1379 78 1251 51 1237 36 1152
12739 -0.82005884041127142 1.0603179463456958 2.5574565515001657 88 160 72 0.55405636111868073 31 1616 44 1380 36 1151
12740 -0.73320932311474296 0.75774512923492365 2.6098585257603024 151 143 82 0.14960890906677854 2 286 31 245 44 246 95 406 54 161 8 323 98 141 30 164
12741 -0.13896377811351118 1.5738938182823925 2.7116147208270509 89 137 57 0.62783409066393636 16 1549 62 1513 54 1333 34 2068 31 970 44 435 77 1825 63 982 82 1267 55 1005 85 1704 61 1184 60 502 33 125 30 38 50 7
12742 -0.3078483380893936 1.233130641585471 2.6132667334809137 160 183 100 0.68490259868545622 83 973 39 710 44 483 7 902 80 788
12743 -0.6523290948749263 0.96381520622358097 2.5760044968811942 60 90 47 0.15198781350588864 49 1100 12 861 31 678 33 860 44 558 8 745 34 1169 51 503
12744 -0.98105946243691999 0.51236227150068925 2.1578437271134985 255 255 219 0.31019821185720231 98 552 8 887 31 697 44 653 49 1597 43 1642 33 1282 19 759 41 732 52 852 30 97 50 580
12745 -0.29777734007236978 1.4836529110131398 2.633976159351008 90 140 69 0.56472977091455345 2 1860 12 1749 31 1417 44 749 95 2052 62 1726 98 1355 78 993 30 638 51 961 70 294
12746 -0.42773973215380173 0.62458111660633009 2.6851669302613232 58 100 45 0.48655844218731986 16 1657 95 1739 2 1574 62 1593 34 1559 98 1333 8 1439 44 1106 49 1464 33 1191 78 1022 51 1012
12747 -0.55587327014207266 0.75348226290864984 2.6261444916158232 67 106 50 0.25150146564299419 43 1127 76 435 44 616 95 1040 2 897 16 936 62 872 54 777 74 1071 77 1187 12 845 59 444 55 1094 8 815 33 335 51 156 88 145 36 190
12748 -0.22756259696991005 1.5690675371169629 2.6742444812088473 90 160 72 0.53447942863430775 34 1344 8 5 44 5 16 1547 63 1011 31 616
12749 -0.54940265273717692 0.74346728214539837 2.6292899396086566 63 108 51 0.1924310829432648 74 378 77 436 55 432 43 446 31 306 44 241 2 318 54 266 50 240 36 195 70 153
12750 -0.38816848207347632 0.6771008548904125 2.6729957935008617 56 104 48 0.1636737165323594 2 1587 63 1729 31 1338 44 1098 95 1410 62 1311 16 1360 54 1243 12 1218 74 1518 35 1613 98 1085 83 1193 78 843 51 1013
12751 -0.068190089342238996 0.94220268026950882 2.712827675982862 115 127 74 0.70669469041982524 2 2080 62 2088 54 1934 59 2514 37 2522 8 1783 31 1715 44 1410 63 2234 55 2357
12752 -0.56429619124264674 1.1571812163755388 2.0245153259695341 155 198 117 3.1840224259906567 76 312 44 13
12753 -0.41075392955253109 0.94505082767572446 2.6138084140026439 51 76 38 0.050868861415532166 12 377 44 156
12754 -0.72381286785276244 0.78587225715898568 1.9494025837299724 221 212 134 3.5207797793264288 60 974 44 535
12755 -0.25113847225780345 0.89240137576915013 2.6660814335058403 38 73 37 0.026478739009609974 8 1118 44 848
12756 -0.48373896610045636 0.53882197567936985 2.6975508915616211 195 173 106 0.25480348493186561 49 1059 44 958
12759 0.071684961688509879 0.52012673120727948 2.2252943487280969 83 77 68 1.2828845797560211 44 202 94 31
12760 -0.37684333560504113 1.4672552963894407 2.6176002866043726 126 223 109 0.30226344414326628 41 165 9 79
12761 -0.38537309064034603 1.1837324209846525 2.5987860574637631 255 252 171 0.28380578009128654 39 694 9 102
12763 -0.43033264541210248 1.13635830425256 2.5921993039581208 255 255 170 0.11913731613121215 39 687 9 109
12764 -1.3867437643449452 0.034617837521267514 1.3396021391003898 252 245 165 3.4567500656494596 19 640 9 117
12768 -0.44788254409908429 0.94984998712969004 2.6064674282279312 79 137 66 0.13555009102182017 41 203 9 133 36 136 50 511
12771 -0.80034263383620607 1.1733195559613363 2.5585592026288193 109 190 83 0.0054993030387852958 7 373 9 164
12772 -0.80034263383620607 1.1733195559613363 2.5585592026288193 109 190 83 0.0054993030387852958 7 372 9 165
12780 -0.73482590493147204 0.12794024545568886 2.2358755189602273 153 112 67 0.37495268261634829 41 274 9 223 94 151
12781 -0.96786498776868735 0.41952634249527831 2.2036459994530766 223 209 171 0.15462737887038594 41 307 9 224 4 28
12782 -0.25685427234516844 0.69768240299183915 3.0827450692729044 0 0 0 1.6789336274154611 41 299 46 1296
12783 -0.96755778557668037 0.41428492462990707 2.2199817978699423 180 157 125 0.55486310906577863 41 320 9 236 94 537
12784 -0.91334846230089495 0.32075120052892109 2.2383105072141993 217 202 164 0.23736230373587741 41 316 9 247 94 176
12791 -0.17295300767621408 1.1855143042159511 3.6366753225574824 213 192 123 0.92282563511013027 43 506 9 279
12796 -0.81403318301694583 0.54899494775645719 2.6665026568196595 185 167 103 0.10164738797033268 34 357 98 115 9 292
12797 -0.62022533318806516 0.38052319510687899 2.7425957272662331 145 133 79 0.0061377571403066402 44 402 9 293
12798 -0.17043345765445636 1.2953826523152809 3.8311325191700805 174 158 96 0.13235754085381002 44 593 9 296
12799 -0.74784624015587697 0.4334732994632442 2.712444556722601 179 158 98 0.088697115778395591 41 387 9 302
12800 -0.3140228514303493 1.1453802188158533 3.6275605367010573 194 171 106 0.16587786237100008 43 567 9 305
12802 -0.87346058099225266 1.359162450760333 2.5879900247100438 0 0 0 0.1785512071393901 59 726 82 1378
12803 -0.28751687766646705 1.3612122527630945 3.8046966365678312 81 99 47 0.17217212477577074 44 174 9 307
12807 -0.77716813106611138 0.38864535349089541 2.7294352503875299 154 146 85 0.2276514478214654 41 403 9 323 36 328 4 139
12810 -1.0216642218597041 0.57188543229918065 2.662031480454095 65 86 38 0.068550092122250147 33 550 9 332 36 299
12811 -1.1987666550055616 0.68542865497896133 2.5651921730693945 182 158 123 0.4593803117722482 41 460 9 333 22 917 99 671
12812 0.2478634349207437 -0.29920706635182603 2.6486421637284803 0 0 0 2.598025676861841 60 197 82 110
12815 -0.9446499737010754 1.1257939379176252 2.5653095386542621 0 0 0 0.22994609410553896 77 694 85 564
12818 -0.7858179469759341 0.15730521938986736 2.8141877921906966 100 76 51 0.79486733579329427 41 862 9 375 94 669 96 315 22 302 99 833 56 457 4 210 38 610 81 490
12819 -0.77296311616201696 0.14690900707658675 2.9482944111893334 168 129 76 0.54718930836276369 41 485 9 403 36 369 86 130
12820 -1.0604352618414141 0.49105412401389881 2.9092516415789231 241 221 171 0.015490276887392681 19 514 9 404
12821 -1.2254734902167157 0.66627300901048248 2.881229283677607 231 209 160 0.294254321511279 33 626 9 415 56 667
12822 -1.2867405404744976 0.75319360164540483 2.9126919045914184 191 165 125 0.18326254032955513 19 551 9 419 94 383
12823 -0.83871694392229768 0.16886438740882942 3.1505243830315757 180 156 123 0.18223012566106536 41 898 9 430 94 720
12824 -0.42819927407251568 0.084894180288811599 1.8949136146520609 94 145 81 0.58199607083532934 41 947 9 482 94 434
12825 -0.17040194266564032 1.0845941585640047 2.6630971900207987 118 195 90 0.39344353629281154 41 623 9 498 94 62
12826 -0.53160008711840123 1.4562502619026936 2.6041662832103838 231 244 168 0.3621334121886543 41 994 9 500 94 468
12831 0.93350026114404017 2.5580073228880296 4.6247743706064339 196 181 120 2.4934771069031303 41 209 9 535
12836 -0.31327937934211225 0.6350767250837952 2.6987466006370493 195 185 126 0.20602666441511366 41 678 9 561
12839 0.42078137943347599 1.5538201591682335 3.8470907163150865 77 112 53 2.3156385595006763 19 837 9 570
12842 -0.99820903985627396 0.4807851053113007 2.20342321711491 102 74 44 0.35165101443044505 41 759 9 605 94 812
12843 -0.97235437093257349 0.43044251949973777 2.1986472489056954 217 202 162 0.26577442330324291 41 749 9 608 94 531
12844 -0.95889564504408242 0.41143508867524403 2.2149283400314341 203 189 152 0.44301199482556725 41 310 9 610 94 164
12845 -0.94379273553588439 0.36712404174438068 2.2236489525306458 205 191 154 0.28306697645866696 41 760 9 614 94 539 19 262
12847 -0.87938920601354353 0.25389607548262344 2.2236454970414554 126 129 63 1.0198453458024117 41 303 9 619 94 538 22 843 38 267
12848 -0.92123685575402781 0.88264034155122773 2.5783473361239895 151 164 92 0.2409323951492873 74 1094 9 624
12849 -1.083768258239828 1.0240385203061906 2.5720686027124331 104 172 75 0.075799289367066286 33 973 9 635
12850 -0.1710846178055957 1.4774558134944697 3.7269103191913677 133 138 82 0.89408570044309654 44 548 9 640
12853 -1.0656470920989722 1.0490255042654073 2.5756080707633271 0 0 0 0.21060670746821786 77 1364 82 1359
12859 -1.01239934689349 0.55692844313583789 2.6651237177325693 187 163 98 0.3387811925373394 33 1000 9 684 94 646 36 591 4 353 56 136 38 331 25 300 81 74 23 37 1 237
12860 -0.84659878639993225 0.30738649305990812 2.7893883342497889 38 58 21 0.30997922905499037 41 441 9 708 94 319 99 506 56 443 4 395 38 383 25 345 17 311 90 310
12861 -0.84128322200215888 0.29507360662926979 2.8074371525590833 35 59 21 0.39618008934397092 19 1183 9 710 94 898 96 983 22 692 13 273 4 561 38 511 17 317 81 402 90 453 29 356
12862 -1.0104305248407468 0.44520719359367511 2.7815250709266479 74 132 51 0.29650030782384018 19 471 9 718
12863 -1.3134136242418946 0.82463305099492668 2.8916692167568545 84 61 38 0.40493725417921028 18 1627 9 726 94 917
12864 -1.2923977027988274 0.73072084199968901 2.9264585221456261 192 167 132 0.16618669818956244 52 1064 9 735
